ply
format ascii 1.0
element vertex 1088
property float x
property float y
property float z
property uchar red
property uchar green
property uchar blue
end_header
0.416074 0.167791 -0.326285 255 100 100
0.034798 0.306938 0.405846 255 100 100
0.009510 0.572635 0.125022 255 100 100
0.137750 -0.538936 -0.236274 255 100 100
-0.228247 0.129080 0.191884 255 100 100
0.097061 -0.149879 0.282726 255 100 100
0.000880 0.342276 -0.054261 255 100 100
-0.115531 -0.551148 0.126702 255 100 100
0.159587 0.263139 -0.181471 255 100 100
0.497204 -0.354313 0.130556 255 100 100
0.568076 -0.160646 -0.198229 255 100 100
0.304266 0.206511 0.352113 255 100 100
-0.180207 -0.048130 0.410484 255 100 100
-0.001773 0.395109 0.306028 255 100 100
0.193621 0.026608 -0.467611 255 100 100
0.423577 -0.155190 0.051947 255 100 100
0.140806 -0.474275 -0.155211 255 100 100
0.185288 -0.012871 -0.228721 255 100 100
0.237356 -0.315406 0.031455 255 100 100
0.403031 -0.369661 0.055960 255 100 100
-0.129998 0.084705 0.537728 255 100 100
-0.067231 0.352831 -0.281321 255 100 100
0.166252 0.178506 0.056542 255 100 100
-0.062402 0.211077 0.235286 255 100 100
0.300546 -0.131514 0.103405 255 100 100
-0.009676 0.477047 -0.017043 255 100 100
0.317167 -0.100817 -0.102466 255 100 100
-0.357075 -0.254662 -0.421028 255 100 100
0.519745 -0.380092 0.136972 255 100 100
0.171141 0.151945 -0.069435 255 100 100
-0.247142 0.323517 0.046318 255 100 100
-0.227457 -0.339478 0.385544 255 100 100
0.220334 -0.061709 -0.268624 255 100 100
0.360237 0.093612 0.054434 255 100 100
0.162378 0.209375 0.039313 255 100 100
0.289918 -0.054258 0.027358 255 100 100
0.373250 -0.450683 -0.209420 255 100 100
0.444242 0.154444 -0.151626 255 100 100
-0.396501 0.239942 0.128688 255 100 100
-0.093486 -0.312946 0.303984 255 100 100
0.108822 -0.216451 -0.339367 255 100 100
-0.184739 -0.074860 -0.524367 255 100 100
0.049926 0.228128 -0.403769 255 100 100
0.324383 -0.138875 0.234649 255 100 100
0.248246 -0.179491 -0.120388 255 100 100
-0.081118 -0.551111 0.055361 255 100 100
-0.074961 -0.062280 0.452181 255 100 100
-0.254920 0.218458 -0.109434 255 100 100
-0.065189 0.176289 0.444625 255 100 100
0.439820 0.146713 0.257848 255 100 100
0.231650 -0.011961 -0.180630 255 100 100
0.371349 -0.053903 -0.204293 255 100 100
0.177544 0.121794 0.308213 255 100 100
0.185735 0.506292 -0.017481 255 100 100
0.086570 0.136760 0.165358 255 100 100
-0.304812 0.381486 0.029665 255 100 100
-0.123902 0.336847 -0.045476 255 100 100
-0.194153 -0.609205 0.139120 255 100 100
0.159876 -0.374445 0.239954 255 100 100
-0.251302 -0.131138 0.309677 255 100 100
-0.287633 0.078492 -0.345289 255 100 100
0.316370 -0.049292 -0.455888 255 100 100
0.198898 0.024929 -0.130639 255 100 100
-0.013810 0.253549 -0.172837 255 100 100
0.316831 0.027230 -0.231241 255 100 100
-0.671898 -0.036066 -0.057555 255 100 100
0.276506 -0.101676 0.050555 255 100 100
-0.280967 0.161587 0.472602 255 100 100
0.435396 0.255765 0.020673 255 100 100
-0.263895 0.042538 0.388858 255 100 100
0.177760 -0.363014 -0.221583 255 100 100
0.077003 -0.171850 -0.511258 255 100 100
0.027261 0.225429 -0.210073 255 100 100
-0.013991 0.472562 -0.066649 255 100 100
0.047387 0.204350 -0.574734 255 100 100
-0.285472 0.281431 0.176721 255 100 100
-0.026814 -0.381937 -0.397068 255 100 100
-0.608718 0.004009 -0.031466 255 100 100
-0.160447 0.326885 0.157774 255 100 100
-0.372240 0.303186 -0.377743 255 100 100
0.176844 -0.285481 0.106777 255 100 100
-0.319514 0.234200 -0.317237 255 100 100
0.543783 0.217675 -0.269931 255 100 100
0.322312 0.256965 0.171673 255 100 100
0.116723 -0.444358 -0.449387 255 100 100
-0.161855 0.411752 -0.006182 255 100 100
-0.319775 0.038808 -0.430129 255 100 100
-0.485214 -0.427284 -0.372790 255 100 100
-0.174176 0.291256 0.147680 255 100 100
-0.154040 0.533765 -0.383058 255 100 100
0.144944 -0.073676 0.210829 255 100 100
0.101270 -0.190801 0.419075 255 100 100
0.127268 0.296716 -0.241728 255 100 100
-0.013774 0.216060 -0.083589 255 100 100
-0.523782 0.547018 -0.197341 255 100 100
0.134609 0.256376 -0.022580 255 100 100
-0.157798 -0.497240 0.236181 255 100 100
0.105824 0.135154 0.014558 255 100 100
0.021481 0.189478 0.232373 255 100 100
0.380512 0.008413 -0.023129 255 100 100
-0.351845 0.728783 -0.040503 255 100 100
-0.280339 0.298521 0.198935 255 100 100
0.074350 -0.083502 0.476371 255 100 100
-0.404125 0.089363 0.472477 255 100 100
0.024017 0.054000 0.272106 255 100 100
-0.068862 0.368713 -0.043054 255 100 100
0.002288 0.347299 -0.083459 255 100 100
0.278995 0.289661 -0.243820 255 100 100
-0.091890 0.363654 -0.185471 255 100 100
0.405669 -0.024328 0.043875 255 100 100
-0.217165 -0.209516 0.469911 255 100 100
0.181960 -0.282612 0.089434 255 100 100
-0.623197 -0.514663 0.051241 255 100 100
0.123119 -0.283005 0.251657 255 100 100
0.112100 -0.085310 0.367326 255 100 100
0.230224 0.180456 0.142779 255 100 100
-0.271595 0.190535 0.162646 255 100 100
-0.174851 -0.148505 0.526031 255 100 100
-0.529757 -0.073713 0.047257 255 100 100
-0.132096 -0.082362 0.423955 255 100 100
-0.194354 0.084544 0.543180 255 100 100
0.160282 -0.092954 -0.364269 255 100 100
-0.024637 0.224021 -0.106483 255 100 100
0.172429 -0.495238 0.035899 255 100 100
0.413640 -0.004019 -0.547642 255 100 100
0.131734 0.078561 0.394489 255 100 100
0.033963 0.376304 0.110919 255 100 100
0.112072 -0.184517 0.336412 255 100 100
0.198467 0.052879 0.047617 255 100 100
0.274584 -0.023431 -0.219470 255 100 100
-0.580969 0.111854 -0.013369 255 100 100
0.334451 -0.206386 -0.193400 255 100 100
-0.120675 -0.364490 -0.518873 255 100 100
0.375939 -0.140387 -0.117666 255 100 100
-0.384886 0.209545 0.313962 255 100 100
-0.377188 0.249126 -0.464757 255 100 100
-0.218296 0.297648 0.067629 255 100 100
-0.328755 0.134131 -0.359928 255 100 100
0.217096 -0.258679 -0.515248 255 100 100
-0.249101 -0.079254 0.325858 255 100 100
-0.185206 -0.086456 0.632086 255 100 100
-0.083821 -0.028918 -0.431425 255 100 100
0.141593 -0.481820 0.089124 255 100 100
0.207372 0.331412 -0.044714 255 100 100
0.292345 -0.106865 -0.067052 255 100 100
-0.246849 0.171763 0.104343 255 100 100
-0.848180 0.061320 -0.060680 255 100 100
-0.025031 -0.411239 0.281485 255 100 100
0.193006 0.019262 -0.206847 255 100 100
0.088940 -0.114656 -0.382822 255 100 100
0.076006 -0.435514 0.270816 255 100 100
0.148152 0.238208 -0.005800 255 100 100
-0.043465 -0.014241 0.276612 255 100 100
-0.057175 0.136026 -0.547254 255 100 100
0.226547 -0.056126 -0.421808 255 100 100
-0.111123 -0.668972 -0.215864 255 100 100
-0.116453 0.067166 0.340812 255 100 100
0.426415 -0.128214 -0.193786 255 100 100
-0.326134 0.423489 -0.350018 255 100 100
-0.120182 0.480706 -0.070512 255 100 100
0.297939 -0.150560 -0.057936 255 100 100
0.121718 0.070944 0.107773 255 100 100
0.213834 0.118939 0.174360 255 100 100
0.267057 -0.214605 0.074007 255 100 100
0.195087 -0.416115 -0.038380 255 100 100
-0.180153 0.226761 0.088823 255 100 100
0.247161 -0.369471 0.117026 255 100 100
0.260110 -0.001934 0.126194 255 100 100
-0.335996 0.338771 0.140064 255 100 100
-0.176659 -0.462557 -0.395090 255 100 100
-0.493590 0.156477 0.240450 255 100 100
0.232243 0.097159 -0.278779 255 100 100
0.403795 -0.079171 0.010311 255 100 100
-0.226733 0.125815 0.313704 255 100 100
-0.011893 0.177996 0.231665 255 100 100
0.262002 -0.193599 0.256664 255 100 100
-0.382731 -0.121045 0.466307 255 100 100
-0.308576 0.350339 -0.066790 255 100 100
0.511273 0.024736 -0.090748 255 100 100
-0.131449 -0.058910 -0.595900 255 100 100
-0.229266 -0.422750 0.186118 255 100 100
-0.034610 0.212596 0.378722 255 100 100
0.395777 -0.090481 -0.211222 255 100 100
0.045606 -0.377497 0.165088 255 100 100
0.317544 0.420013 0.013368 255 100 100
0.025454 -0.397444 0.227135 255 100 100
-0.547526 -0.611306 -0.012812 255 100 100
-0.487517 -0.652476 -0.130623 255 100 100
0.432541 -0.103867 -0.193952 255 100 100
0.288093 -0.087816 -0.105001 255 100 100
-0.342586 -0.116589 0.450848 255 100 100
0.339075 0.279565 0.305052 255 100 100
-0.037408 0.178136 0.328605 255 100 100
0.207720 -0.084031 -0.538786 255 100 100
0.031267 0.277680 0.555892 255 100 100
-0.297629 0.274011 0.334645 255 100 100
0.007552 -0.294180 -0.450764 255 100 100
-0.392433 -0.171302 0.219880 255 100 100
-0.324385 0.189934 -0.249996 255 100 100
0.099752 -0.204230 0.566656 255 100 100
-0.495894 -0.184247 0.036429 255 100 100
0.010454 0.453630 -0.040257 255 100 100
0.146450 -0.313608 0.236329 255 100 100
0.392771 -0.087827 0.060245 255 100 100
0.005826 0.085090 0.342766 255 100 100
0.138186 0.369327 -0.062467 255 100 100
-0.202442 0.130498 0.288412 255 100 100
-0.608850 0.475770 0.044038 255 100 100
-0.076937 0.309315 0.014426 255 100 100
-0.319777 0.167618 -0.244013 255 100 100
-0.227827 -0.351226 0.337554 255 100 100
0.166752 -0.325351 0.295086 255 100 100
0.272889 -0.035072 0.055334 255 100 100
0.322209 -0.110293 -0.167588 255 100 100
-0.015504 0.397822 0.124194 255 100 100
0.125428 0.322653 -0.159291 255 100 100
-0.265231 0.339822 0.161700 255 100 100
-0.120784 0.262604 0.216857 255 100 100
0.212174 0.071668 0.224258 255 100 100
-0.073668 0.211058 -0.359472 255 100 100
0.266787 0.090378 -0.025135 255 100 100
-0.014474 -0.286139 -0.434745 255 100 100
-0.353506 0.185885 -0.528823 255 100 100
0.253359 0.335416 -0.066247 255 100 100
0.067380 0.164474 -0.327228 255 100 100
0.205786 -0.113892 -0.284925 255 100 100
-0.153432 0.280186 -0.388689 255 100 100
-0.424474 0.190139 -0.283788 255 100 100
0.271945 -0.162835 -0.394390 255 100 100
0.086331 -0.508494 0.128948 255 100 100
0.392145 -0.071483 0.006750 255 100 100
-0.223826 -0.131365 -0.509950 255 100 100
0.417683 -0.193293 -0.062425 255 100 100
0.269456 0.366239 -0.010752 255 100 100
0.271167 -0.294115 0.084289 255 100 100
0.130891 0.052692 0.109489 255 100 100
0.054713 -0.101684 0.380057 255 100 100
0.056767 0.050116 -0.530582 255 100 100
0.076345 0.179841 0.038087 255 100 100
0.088704 0.128816 -0.354760 255 100 100
0.140415 0.186517 0.404930 255 100 100
0.383993 -0.280772 -0.078429 255 100 100
0.182798 0.408396 -0.167209 255 100 100
0.256960 0.151509 0.163703 255 100 100
0.337242 -0.036614 -0.193479 255 100 100
-0.029764 0.331400 -0.136974 255 100 100
0.236094 -0.389603 -0.173828 255 100 100
-0.002614 0.199001 0.006888 255 100 100
-0.010729 0.150277 0.329858 255 100 100
0.135903 0.120173 -0.140646 255 100 100
0.495841 -0.265367 -0.044715 255 100 100
0.066719 -0.088883 -0.455836 255 100 100
0.023796 -0.373824 0.519314 255 100 100
-0.008679 0.411960 -0.093076 255 100 100
-0.071899 -0.022372 -0.485569 255 100 100
0.337206 -0.066776 -0.076733 255 100 100
0.258161 -0.304281 -0.067582 255 100 100
-0.125026 0.180647 0.223555 255 100 100
0.025159 0.167459 -0.278970 255 100 100
-0.144684 0.021446 0.566787 255 100 100
0.190696 -0.004693 0.090148 255 100 100
0.359130 0.057116 0.276851 255 100 100
0.094955 -0.279790 0.322548 255 100 100
0.134801 0.332386 0.079225 255 100 100
0.171614 0.212437 0.246549 255 100 100
-0.236575 -0.679245 0.252976 255 100 100
0.104464 0.301982 -0.024940 255 100 100
-0.030267 0.387930 -0.231951 255 100 100
-0.535440 -0.579992 -0.028310 255 100 100
-0.028979 0.305644 -0.241770 255 100 100
-0.083207 0.286530 0.037849 255 100 100
-0.085656 0.306835 -0.573111 255 100 100
-0.097879 -0.562298 -0.468826 255 100 100
0.384015 -0.021088 -0.150636 255 100 100
-0.340958 0.166284 -0.000892 255 100 100
0.430917 -0.219511 -0.283619 255 100 100
0.241097 0.334402 0.035382 255 100 100
0.009604 0.167042 0.210923 255 100 100
-0.010982 -0.587518 0.193991 255 100 100
-0.426192 0.109684 -0.058814 255 100 100
0.465164 -0.178721 -0.089933 255 100 100
-0.405200 -0.313967 -0.367188 255 100 100
-0.116099 0.323745 0.249670 255 100 100
-0.509646 -0.378849 -0.092176 255 100 100
-0.041170 -0.288700 -0.520785 255 100 100
0.331424 -0.092494 -0.033759 255 100 100
0.101514 -0.097453 -0.368211 255 100 100
-0.009733 0.240712 -0.155086 255 100 100
0.185100 0.136593 -0.084658 255 100 100
-0.105160 0.204194 0.070747 255 100 100
-0.374502 -0.204558 0.250046 255 100 100
-0.374019 0.111000 -0.237865 255 100 100
0.077464 0.520401 0.289259 255 100 100
0.288043 -0.346961 0.288016 255 100 100
0.187529 -0.415440 0.058915 255 100 100
0.311210 -0.465762 0.275337 255 100 100
0.081508 0.057965 0.246658 255 100 100
-0.210776 0.081694 0.238732 255 100 100
0.201496 -0.214107 -0.482064 255 100 100
-0.118964 0.299192 -0.164764 255 100 100
-0.353404 0.090267 0.302478 255 100 100
-0.055398 0.244515 0.103332 255 100 100
0.000045 -0.671621 -0.392234 255 100 100
0.363541 -0.028113 0.003098 255 100 100
-0.234493 -0.279732 -0.708962 255 100 100
-0.414772 0.070662 -0.377699 255 100 100
0.157882 0.358870 0.301115 255 100 100
0.287982 -0.025847 0.155868 255 100 100
-0.111066 0.141851 -0.330014 255 100 100
-0.348750 0.190929 -0.371219 255 100 100
-0.051077 -0.518975 0.337295 255 100 100
-0.010777 0.521451 0.009552 255 100 100
-0.465484 -0.167803 0.124604 255 100 100
0.410824 0.008091 -0.056331 255 100 100
-0.123675 0.235385 -0.007762 255 100 100
0.291204 0.085298 -0.326040 255 100 100
-0.205871 0.143929 0.429381 255 100 100
-0.001578 -0.283520 0.461928 255 100 100
-0.536629 -0.276983 0.131706 255 100 100
-0.031623 -0.495310 -0.201255 255 100 100
0.404198 0.149903 -0.012596 255 100 100
-0.291980 -0.045749 0.271610 255 100 100
0.411047 -0.130823 0.280357 255 100 100
0.295843 -0.394507 0.237056 255 100 100
0.211116 0.229782 -0.012231 255 100 100
-0.492087 0.177054 0.137233 255 100 100
-0.478883 0.184396 0.387355 255 100 100
-0.370452 -0.693715 0.051203 255 100 100
0.231488 -0.075969 0.487377 255 100 100
0.242386 0.115257 0.174714 255 100 100
-0.509673 0.165380 -0.131745 255 100 100
0.266706 0.159082 -0.130489 255 100 100
-0.461878 0.224267 -0.180647 255 100 100
0.035618 -0.004492 0.424996 255 100 100
-0.200788 0.319242 0.281482 255 100 100
-0.246516 -0.264246 -0.560736 255 100 100
-0.230431 0.260670 0.211598 255 100 100
-0.213242 0.143722 -0.371865 255 100 100
0.323173 -0.342339 0.050576 255 100 100
-0.457411 0.054110 -0.283888 255 100 100
0.426265 -0.337832 0.076644 255 100 100
0.284825 0.026693 -0.042354 255 100 100
0.297695 -0.055146 0.017686 255 100 100
-0.004230 0.312042 0.381943 255 100 100
-0.481841 -0.322366 0.009026 255 100 100
0.045015 -0.446422 0.177905 255 100 100
-0.393946 0.240159 0.178781 255 100 100
0.176803 0.114989 0.173048 255 100 100
-0.206912 0.209518 0.066524 255 100 100
0.131907 0.061655 -0.311611 255 100 100
0.176061 0.147570 -0.196498 255 100 100
-0.385522 0.229653 0.178154 255 100 100
-0.068215 -0.570771 0.055752 255 100 100
-0.212573 -0.309869 0.524505 255 100 100
0.328598 0.238413 -0.226315 255 100 100
0.152763 0.537770 0.053644 255 100 100
-0.189259 -0.502729 -0.166470 255 100 100
0.365486 0.022821 -0.411451 255 100 100
-0.099938 0.184632 0.134628 255 100 100
-0.093201 0.342673 0.470247 255 100 100
-0.046225 0.223062 -0.077562 255 100 100
-0.132432 0.426382 -0.120786 255 100 100
0.255299 -0.154476 -0.167936 255 100 100
0.400108 0.226701 -0.274499 255 100 100
-0.029544 0.181291 0.387793 255 100 100
-0.198335 0.127229 -0.533823 255 100 100
0.227282 -0.335885 0.024810 255 100 100
0.185867 0.239172 -0.670785 255 100 100
-0.054968 -0.408419 0.502702 255 100 100
-0.306916 -0.251683 0.264336 255 100 100
0.164750 0.015044 0.116754 255 100 100
-0.049439 -0.031700 0.340201 255 100 100
-0.142092 0.198227 0.099494 255 100 100
0.173434 0.332352 0.123032 255 100 100
0.095585 0.379862 -0.070249 255 100 100
-0.440112 0.383032 0.244449 255 100 100
0.126655 -0.473549 0.376150 255 100 100
0.378373 -0.359537 -0.072378 255 100 100
0.039428 -0.633832 0.553232 255 100 100
0.137514 0.031917 0.132316 255 100 100
-0.319936 0.129854 -0.366618 255 100 100
0.486961 -0.098708 -0.130851 255 100 100
0.202059 0.220211 -0.138754 255 100 100
0.110732 0.395922 -0.369453 255 100 100
0.280894 -0.145059 -0.222291 255 100 100
-0.185208 0.077340 0.324419 255 100 100
0.106594 -0.354036 -0.466675 255 100 100
0.069828 0.574557 0.256820 255 100 100
0.354735 0.172074 0.298622 255 100 100
-0.051610 0.253391 0.270779 255 100 100
0.116252 0.054656 0.207245 255 100 100
0.181789 -0.313824 0.215602 255 100 100
-0.041404 -0.376767 0.324222 255 100 100
-0.062408 0.432316 -0.125438 255 100 100
0.450379 -0.118264 0.185059 255 100 100
-0.124827 0.154373 -0.342175 255 100 100
0.217155 -0.169019 -0.240318 255 100 100
0.154171 0.002782 0.299588 255 100 100
-0.014875 -0.030686 -0.438146 255 100 100
-0.610056 -0.032587 -0.076619 255 100 100
-0.110366 -0.219310 -0.447909 255 100 100
-0.320182 -0.578207 -0.188927 255 100 100
0.238894 -0.003643 -0.387142 255 100 100
-0.379858 -0.439190 0.219359 255 100 100
0.471968 -0.126513 0.014140 255 100 100
-0.093436 0.120159 0.342978 255 100 100
-0.331442 0.128189 0.314070 255 100 100
-0.199624 0.228437 0.125664 255 100 100
-0.176914 0.220515 0.080767 255 100 100
0.119916 0.184399 -0.234068 255 100 100
0.246502 -0.383110 0.037277 255 100 100
0.010137 0.393751 0.105424 255 100 100
-0.175947 0.292308 -0.000637 255 100 100
0.220067 -0.007140 -0.044162 255 100 100
-0.430680 -0.072545 -0.290927 255 100 100
0.039406 -0.064519 -0.465299 255 100 100
-0.247377 0.245910 -0.052613 255 100 100
-0.419293 0.158627 -0.128470 255 100 100
-0.325862 0.204857 -0.075660 255 100 100
0.055111 0.283027 -0.365870 255 100 100
-0.799028 0.064131 0.200461 255 100 100
-0.181957 0.220264 -0.002235 255 100 100
0.158222 0.051564 0.355697 255 100 100
-0.503877 -0.217710 0.096380 255 100 100
0.583337 0.271026 0.516834 255 100 100
0.281965 -0.568704 -0.185032 255 100 100
0.128119 -0.077144 0.260522 255 100 100
-0.186708 0.477001 -0.276112 255 100 100
-0.041663 0.491522 -0.302616 255 100 100
0.323974 0.388907 -0.126918 255 100 100
0.495886 -0.158241 -0.000456 255 100 100
-0.230578 -0.552638 0.119220 255 100 100
-0.320474 0.493119 -0.236157 255 100 100
0.068424 -0.454791 -0.109407 255 100 100
0.288221 0.065765 0.225317 255 100 100
-0.130780 0.605661 -0.057895 255 100 100
-0.269872 0.250771 0.277525 255 100 100
0.125921 0.017752 0.173777 255 100 100
-0.429915 -0.028295 -0.398956 255 100 100
0.059653 0.282927 0.240729 255 100 100
0.228758 -0.232964 0.137154 255 100 100
0.289804 0.470746 0.204308 255 100 100
-0.228706 0.351090 -0.089724 255 100 100
-0.242687 -0.429247 0.162260 255 100 100
-0.079909 -0.353991 -0.439404 255 100 100
-0.150986 0.468067 -0.366357 255 100 100
0.044634 -0.520380 0.291402 255 100 100
0.003604 -0.283722 0.281552 255 100 100
0.180490 0.201146 -0.240199 255 100 100
0.195799 -0.625386 -0.083085 255 100 100
-0.468280 0.268296 -0.104058 255 100 100
0.268878 -0.259436 -0.190970 255 100 100
0.096415 0.146624 0.031814 255 100 100
-0.553869 -0.047857 -0.074539 255 100 100
-0.469798 0.001382 0.199709 255 100 100
-0.493293 0.195948 -0.589604 255 100 100
0.062406 -0.422952 -0.352208 255 100 100
-0.543349 0.163220 -0.279084 255 100 100
0.149091 -0.141573 0.190917 255 100 100
-0.052814 0.211510 0.048010 255 100 100
0.191947 -0.123309 0.320138 255 100 100
-0.170824 0.130526 0.359059 255 100 100
-0.263861 0.107292 0.259010 255 100 100
0.355705 0.012528 -0.218467 255 100 100
0.137588 0.396088 -0.231185 255 100 100
0.045474 -0.051247 0.339255 255 100 100
0.267930 0.075993 0.245682 255 100 100
0.275170 -0.190189 0.001831 255 100 100
-0.038608 -0.179669 -0.495438 255 100 100
-0.231101 0.056398 -0.485515 255 100 100
0.050897 0.274442 0.211858 255 100 100
-0.053716 0.150311 0.472034 255 100 100
-0.009888 0.118431 0.217590 255 100 100
-0.320789 0.175051 0.308720 255 100 100
-0.365563 0.160624 -0.375416 255 100 100
0.450812 -0.022173 0.108061 255 100 100
-0.402259 -0.036752 -0.322814 255 100 100
-0.028069 -0.028935 0.278939 255 100 100
-0.189587 0.253144 0.001777 255 100 100
0.125743 -0.422205 -0.056728 255 100 100
-0.088845 0.304660 -0.126697 255 100 100
-0.490084 0.229748 -0.194831 255 100 100
0.177117 0.113977 0.029080 255 100 100
-0.103951 -0.700447 -0.256822 255 100 100
0.103736 -0.037274 0.395399 255 100 100
-0.571325 -0.165135 0.065586 255 100 100
0.188634 0.187489 -0.086309 255 100 100
-0.523267 0.002934 -0.179831 255 100 100
0.277190 -0.242665 -0.106532 255 100 100
0.275885 0.165626 -0.065125 255 100 100
0.187721 -0.115405 -0.456912 255 100 100
0.004553 -0.100729 -0.491527 255 100 100
0.244870 0.106831 0.062101 255 100 100
-0.660939 -0.088195 0.126088 255 100 100
0.254483 -0.032755 0.094152 255 100 100
0.069909 -0.093454 0.400844 255 100 100
-0.299454 0.263688 -0.203012 255 100 100
-0.009199 -0.116790 0.405157 255 100 100
0.160248 -0.440153 0.001440 255 100 100
-0.152979 0.203109 0.343468 255 100 100
0.156867 -0.377032 0.003326 255 100 100
0.288638 -0.459708 0.174206 255 100 100
-0.384231 -0.682218 0.354916 255 100 100
-0.110215 0.152928 0.327420 255 100 100
-0.147647 0.307027 0.127257 255 100 100
-0.180060 0.259205 0.285700 255 100 100
0.218340 -0.185126 -0.411714 255 100 100
0.095830 0.227070 0.066222 255 100 100
0.282816 -0.458793 -0.109455 255 100 100
0.224499 -0.173911 -0.208716 255 100 100
-0.199020 0.227457 -0.318622 255 100 100
-0.516096 -0.069100 0.432295 255 100 100
0.300422 0.142563 0.223187 255 100 100
-0.551459 0.210087 -0.563728 255 100 100
-0.571913 -0.055165 -0.203439 255 100 100
0.628212 0.244620 -0.333771 255 100 100
0.214984 -0.069028 -0.206602 255 100 100
0.020113 0.010689 -0.510472 255 100 100
-0.311274 0.135380 0.149061 255 100 100
-0.022290 -0.123818 0.517659 255 100 100
0.239270 0.105217 -0.179157 255 100 100
0.006025 0.531838 0.206871 255 100 100
0.385187 -0.068781 0.211198 255 100 100
0.349994 -0.234785 -0.260900 255 100 100
0.341053 0.068961 0.470911 255 100 100
-0.485560 0.487020 -0.145174 255 100 100
0.498742 0.043442 0.138235 255 100 100
0.278858 -0.251581 0.185187 255 100 100
-0.072612 0.276930 -0.102422 255 100 100
-0.458742 0.312078 -0.456128 255 100 100
-0.196058 0.215289 -0.435758 255 100 100
0.213659 -0.027036 0.280701 255 100 100
0.307394 -0.007278 0.489821 255 100 100
-0.223862 0.122417 -0.363495 255 100 100
0.016013 0.312694 0.282437 255 100 100
-0.403281 -0.062251 0.232761 255 100 100
-0.255545 0.213744 -0.556841 255 100 100
0.279649 -0.264763 0.095909 255 100 100
-0.347380 0.222041 -0.108154 255 100 100
0.209369 0.125148 0.210823 255 100 100
0.070010 -0.089874 0.344761 255 100 100
0.098596 0.264520 -0.015988 255 100 100
0.027174 0.252049 -0.155464 255 100 100
0.201727 -0.022292 0.523240 255 100 100
0.100037 -0.063113 0.291625 255 100 100
0.079034 0.138859 0.087892 255 100 100
-0.436194 -0.355313 0.166991 255 100 100
-0.093170 0.606233 -0.081764 255 100 100
-0.028410 -0.448468 0.285229 255 100 100
0.346952 -0.180098 -0.117987 255 100 100
0.192120 -0.311406 0.225644 255 100 100
0.342007 -0.063409 0.352689 255 100 100
0.225986 -0.250561 0.230547 255 100 100
-0.127682 0.354825 -0.068538 255 100 100
0.246747 0.461462 0.367616 255 100 100
0.108310 0.175579 -0.327002 255 100 100
-0.488941 0.172683 -0.063146 255 100 100
0.088250 0.314378 -0.553472 255 100 100
0.287334 0.100332 0.150640 255 100 100
0.030171 -0.285141 0.357716 255 100 100
-0.280039 -0.059117 0.283863 255 100 100
0.045779 0.129374 -0.237401 255 100 100
-0.011603 0.123488 0.212471 255 100 100
0.060830 -0.526591 0.024628 255 100 100
0.283781 -0.536997 -0.080441 255 100 100
0.592656 -0.082285 -0.188611 255 100 100
0.410959 -0.212558 -0.181061 255 100 100
0.270425 0.029343 -0.087651 255 100 100
0.153499 0.224152 0.090864 255 100 100
0.273290 0.205097 -0.005363 255 100 100
0.161581 -0.173371 -0.455596 255 100 100
-0.545584 0.022146 -0.163234 255 100 100
-0.498088 -0.401396 -0.386320 255 100 100
-0.131064 -0.656224 0.268268 255 100 100
0.213227 -0.113202 -0.516380 255 100 100
0.029090 0.526531 0.074750 255 100 100
0.160691 0.433677 -0.126494 255 100 100
0.091290 0.181653 0.428974 255 100 100
0.767440 0.314490 -0.126140 255 100 100
0.260685 -0.470338 0.182095 255 100 100
0.022420 0.118224 -0.382862 255 100 100
0.122682 -0.672102 -0.144997 255 100 100
-0.181290 0.270759 -0.036613 255 100 100
-0.344477 -0.054735 0.398191 255 100 100
0.302941 0.341921 -0.006548 255 100 100
-0.480433 -0.211564 0.378483 255 100 100
-0.287799 0.118779 0.151289 255 100 100
-0.031700 0.286651 -0.128736 255 100 100
-0.621740 0.187318 -0.069269 255 100 100
0.316009 0.185358 0.168045 255 100 100
0.465624 -0.241011 0.208247 255 100 100
0.122466 -0.591415 0.015051 255 100 100
-0.150299 0.200598 0.217799 255 100 100
-0.076249 -0.247545 0.522824 255 100 100
-0.096818 0.245999 -0.242148 255 100 100
-0.533628 0.271980 0.291761 255 100 100
0.069813 0.287993 0.010664 255 100 100
-0.276628 -0.011320 0.270087 255 100 100
0.265480 0.067071 -0.316825 255 100 100
0.042617 0.038036 -0.466792 255 100 100
-0.561576 -0.276433 -0.130073 255 100 100
0.056172 0.307854 0.721206 255 100 100
-0.306530 0.105084 -0.362316 255 100 100
0.320606 0.053029 -0.201655 255 100 100
0.232153 0.072130 -0.030021 255 100 100
-0.329876 -0.313374 0.221009 255 100 100
0.043279 -0.460522 -0.237653 255 100 100
0.245994 -0.104823 0.624451 255 100 100
0.226399 0.028001 -0.000868 255 100 100
0.293154 0.236786 0.083397 255 100 100
-0.087912 -0.073246 -0.589435 255 100 100
-0.501015 0.386064 -0.221424 255 100 100
-0.179415 0.117999 0.334775 255 100 100
-0.180345 -0.775674 0.342030 255 100 100
-0.094518 0.362786 0.239468 255 100 100
-0.663968 0.011167 0.427286 255 100 100
-0.538362 0.133296 0.020535 255 100 100
0.036084 0.402087 0.016384 255 100 100
0.087099 0.145936 0.025500 255 100 100
-0.254798 -0.152801 0.291956 255 100 100
-0.174866 -0.086281 0.551617 255 100 100
0.264145 -0.173562 0.323987 255 100 100
-0.463269 0.440702 -0.166146 255 100 100
0.101391 0.435738 -0.161748 255 100 100
-0.024996 0.106200 -0.335233 255 100 100
-0.184657 0.194408 0.327057 255 100 100
-0.457497 -0.002257 -0.222468 255 100 100
0.102704 0.091273 -0.315191 255 100 100
-0.535692 -0.212902 -0.151721 255 100 100
0.134851 0.122764 -0.005859 255 100 100
0.180580 -0.060026 0.193853 255 100 100
0.035412 -0.145778 0.314453 255 100 100
-0.215719 -0.054889 0.360243 255 100 100
0.143831 -0.023664 0.293636 255 100 100
0.071830 0.268502 -0.182588 255 100 100
-0.245275 -0.441242 -0.364285 255 100 100
-0.861922 -0.043869 -0.264316 255 100 100
-0.266680 0.518770 0.206395 255 100 100
0.218667 -0.047617 -0.241825 255 100 100
0.033749 0.263614 0.207406 255 100 100
-0.216891 0.256919 0.097835 255 100 100
-0.380423 0.032354 0.512603 255 100 100
0.047550 0.381654 -0.362026 255 100 100
0.228010 0.198666 0.255004 255 100 100
0.176620 0.034732 0.119310 255 100 100
0.164607 -0.296742 0.234570 255 100 100
0.218217 -0.295463 -0.263668 255 100 100
0.144370 0.211483 0.022840 255 100 100
0.366367 0.172960 -0.451095 255 100 100
-0.274111 -0.254917 -0.410199 255 100 100
0.531322 0.343715 -0.396629 255 100 100
-0.317873 0.159917 -0.175450 255 100 100
-0.096620 0.160867 -0.682706 255 100 100
0.179675 0.221104 -0.088017 255 100 100
0.293410 -0.050256 0.333836 255 100 100
-0.079581 -0.309059 -0.398863 255 100 100
-0.103670 -0.573099 0.182271 255 100 100
-0.589028 -0.148575 -0.102995 255 100 100
-0.053757 -0.287252 0.282155 255 100 100
0.299739 -0.214866 -0.375812 255 100 100
0.093153 -0.367634 0.275655 255 100 100
0.337004 -0.219313 0.098559 255 100 100
-0.264542 -0.513195 0.180713 255 100 100
0.317339 -0.126208 0.024182 255 100 100
-0.103860 0.109470 0.476255 255 100 100
-0.239344 -0.171964 0.545939 255 100 100
-0.409567 0.251366 0.234202 255 100 100
0.278887 0.478102 0.139527 255 100 100
-0.332174 0.216348 0.067278 255 100 100
-0.476476 0.083313 -0.012189 255 100 100
0.200466 -0.374133 0.207859 255 100 100
-0.213198 0.343143 -0.219134 255 100 100
0.103691 0.167710 0.066188 255 100 100
-0.207108 0.174153 -0.240688 255 100 100
0.147100 0.141028 0.307734 255 100 100
-0.052744 -0.536598 -0.092840 255 100 100
-0.727633 -0.280618 0.048750 255 100 100
0.314475 -0.372357 -0.082235 255 100 100
0.256906 0.373478 0.034208 255 100 100
0.199651 0.113818 -0.097118 255 100 100
0.252650 -0.110499 0.049863 255 100 100
0.257338 0.067026 -0.086837 255 100 100
-0.166094 0.293198 0.185075 255 100 100
0.331844 0.286521 0.179270 255 100 100
0.185174 0.310251 -0.369537 255 100 100
0.740197 -0.392161 -0.004513 255 100 100
-0.175961 0.376243 -0.271614 255 100 100
-0.456155 -0.420529 0.119615 255 100 100
0.199377 -0.471403 -0.295646 255 100 100
-0.230132 0.390040 0.067322 255 100 100
-0.255557 0.106368 0.187755 255 100 100
0.508800 0.355649 -0.021358 255 100 100
-0.043741 0.351963 0.212729 255 100 100
-0.534173 -0.059241 0.028583 255 100 100
-0.634414 -0.056385 -0.135892 255 100 100
-0.114326 0.243608 0.050575 255 100 100
0.442706 -0.100591 -0.048871 255 100 100
-0.109106 0.008796 0.512291 255 100 100
0.054845 -0.556889 0.338864 255 100 100
0.321183 -0.154689 -0.131720 255 100 100
0.138569 0.139878 0.141439 255 100 100
0.362546 -0.405632 -0.320227 255 100 100
-0.246333 0.176062 0.296788 255 100 100
0.152741 0.543959 0.257888 255 100 100
0.293850 0.095345 -0.030003 255 100 100
-0.051439 0.372865 0.041722 255 100 100
-0.085320 0.141230 0.327112 255 100 100
-0.085397 0.331281 0.089368 255 100 100
0.227055 -0.043008 0.055498 255 100 100
-0.150154 -0.484185 -0.225605 255 100 100
0.302568 -0.250610 -0.006018 255 100 100
0.082867 0.326680 0.339578 255 100 100
-0.221178 0.257246 0.124300 255 100 100
0.129279 0.379268 -0.113836 255 100 100
0.196602 -0.363491 0.028917 255 100 100
-0.278387 0.280697 -0.403805 255 100 100
0.185964 0.269005 -0.286938 255 100 100
0.394264 0.105639 -0.132623 255 100 100
-0.109852 -0.208947 0.359216 255 100 100
0.230130 -0.217318 -0.052960 255 100 100
0.146400 -0.035206 0.301999 255 100 100
0.481219 0.039559 0.218880 255 100 100
-0.189105 0.189859 0.390111 255 100 100
0.312843 0.202875 -0.147996 255 100 100
-0.194386 0.300180 -0.414443 255 100 100
-0.088761 0.374179 -0.404870 255 100 100
0.346999 0.244611 0.000210 255 100 100
0.153016 0.071580 0.343306 255 100 100
0.436726 0.067372 0.254360 255 100 100
-0.477621 -0.162968 -0.300830 255 100 100
-0.143363 -0.086118 -0.436803 255 100 100
-0.097484 -0.266705 -0.646747 255 100 100
0.323156 -0.122216 -0.155439 255 100 100
-0.115810 -0.039922 0.336748 255 100 100
-0.403663 0.130872 -0.057985 255 100 100
0.342491 0.091876 0.444697 255 100 100
-0.452326 -0.305446 0.260673 255 100 100
0.192924 0.156853 -0.316153 255 100 100
0.351973 0.065492 0.038944 255 100 100
-0.361992 -0.357507 -0.283115 255 100 100
-0.059992 -0.282520 -0.409407 255 100 100
-0.122883 0.038317 -0.385207 255 100 100
0.428857 -0.248962 0.003880 255 100 100
-0.142124 0.214453 0.181793 255 100 100
0.390085 0.153165 -0.506413 255 100 100
0.131746 0.002261 0.192062 255 100 100
0.201143 -0.176033 0.229012 255 100 100
-0.393166 0.370028 -0.217133 255 100 100
0.256615 0.018133 -0.121738 255 100 100
-0.164616 -0.059619 0.323812 255 100 100
0.103015 -0.080716 -0.968398 255 100 100
-0.376250 0.122121 -0.531615 255 100 100
-0.205585 0.267525 -0.785342 255 100 100
0.254562 -0.474917 -0.168842 255 100 100
0.235151 0.070934 0.011992 255 100 100
0.288710 -0.260263 0.001030 255 100 100
-0.223675 -0.156366 0.350812 255 100 100
0.185555 0.090283 0.080164 255 100 100
0.236965 -0.198960 0.281699 255 100 100
0.191815 -0.028233 0.179986 255 100 100
-0.307546 0.175693 -0.229753 255 100 100
0.114812 0.215799 0.422718 255 100 100
-0.151821 0.085235 0.282485 255 100 100
-0.094924 0.184942 0.285381 255 100 100
-0.154993 0.033745 0.286824 255 100 100
-0.069605 -0.148107 0.329587 255 100 100
0.279881 -0.273618 -0.186222 255 100 100
0.137784 0.186402 -0.293191 255 100 100
-0.077323 0.136253 0.486687 255 100 100
0.022498 0.289497 -0.120196 255 100 100
-0.441715 0.098793 -0.017004 255 100 100
-0.340478 -0.511517 -0.310155 255 100 100
-0.063709 -0.664740 0.011407 255 100 100
0.104859 0.013949 -0.488807 255 100 100
0.392738 0.270418 -0.342972 255 100 100
0.101310 0.383143 0.262402 255 100 100
-0.531939 0.153812 -0.042688 255 100 100
0.247935 -0.225384 0.025981 255 100 100
0.221876 0.017117 -0.261850 255 100 100
-0.025232 -0.126677 0.329940 255 100 100
-0.395325 -0.155005 0.286304 255 100 100
-0.163713 0.214104 -0.247661 255 100 100
-0.285774 0.304483 0.014802 255 100 100
0.014176 -0.490166 0.227173 255 100 100
0.174813 0.148660 0.041698 255 100 100
-0.079578 0.344908 0.169584 255 100 100
0.139363 -0.009441 0.366381 255 100 100
0.295137 -0.525317 0.043046 255 100 100
0.182136 -0.005301 0.323153 255 100 100
-0.477825 0.038759 -0.195482 255 100 100
-0.260360 0.533624 -0.015265 255 100 100
0.317794 0.050881 -0.062774 255 100 100
0.227957 -0.393243 -0.153538 255 100 100
-0.332387 -0.369315 0.194729 255 100 100
0.122661 -0.096580 0.340154 255 100 100
0.026143 0.182993 0.268226 255 100 100
0.029593 -0.002802 -0.525909 255 100 100
0.472697 0.248791 0.015652 255 100 100
-0.411017 0.284432 -0.134091 255 100 100
-0.438417 0.024136 0.120967 255 100 100
0.303630 0.013746 0.416975 255 100 100
-0.480274 0.290038 0.064679 255 100 100
-0.145842 -0.540493 0.061843 255 100 100
0.185103 -0.435318 -0.414390 255 100 100
-0.579285 0.155321 0.088390 255 100 100
-0.317048 0.265232 -0.038672 255 100 100
-0.186475 -0.082181 0.317787 255 100 100
-0.201426 0.105591 -0.555065 255 100 100
0.255466 -0.469430 0.051412 255 100 100
0.157908 -0.530390 -0.143003 255 100 100
0.243471 -0.047313 0.141480 255 100 100
0.118901 0.110400 -0.204352 255 100 100
0.398520 -0.316697 0.306054 255 100 100
0.161018 0.201547 -0.038664 255 100 100
-0.062555 0.011593 0.378684 255 100 100
0.160476 0.017800 0.149129 255 100 100
0.221883 -0.092948 0.137812 255 100 100
0.245069 -0.247822 0.127896 255 100 100
-0.264459 0.136263 0.266190 255 100 100
-0.124976 -0.551080 0.207227 255 100 100
0.215470 -0.286721 0.282186 255 100 100
0.520908 0.267912 -0.020342 255 100 100
-0.140516 -0.518730 -0.240467 255 100 100
-0.310311 -0.282021 -0.358650 255 100 100
-0.525055 0.075754 -0.022555 255 100 100
-0.290323 0.208095 0.137264 255 100 100
-0.507482 0.197023 -0.236784 255 100 100
-0.133331 0.321486 0.103864 255 100 100
-0.452996 0.171107 -0.495351 255 100 100
0.244339 -0.598310 -0.177379 255 100 100
-0.229132 0.414732 0.000071 255 100 100
-0.000850 -0.232449 0.367700 255 100 100
0.187706 -0.116199 -0.444766 255 100 100
0.101429 0.318236 -0.235921 255 100 100
-0.340497 -0.361805 0.195793 255 100 100
-0.345731 -0.364085 0.332595 255 100 100
0.490169 -0.213307 0.351540 255 100 100
-0.331195 0.180368 -0.193062 255 100 100
0.341215 -0.184247 -0.116536 255 100 100
-0.237383 0.361698 0.112611 255 100 100
0.387607 0.118831 -0.322348 255 100 100
0.033375 0.258495 -0.022344 255 100 100
0.050995 -0.433029 -0.364951 255 100 100
0.118354 0.178908 0.100490 255 100 100
-0.511075 -0.069433 0.123095 255 100 100
0.232578 -0.041811 0.097769 255 100 100
0.010594 0.320026 -0.337651 255 100 100
-0.349788 -0.038429 0.294987 255 100 100
0.286278 -0.050900 -0.068791 255 100 100
0.058195 -0.511865 0.221761 255 100 100
0.262505 -0.041659 -0.219090 255 100 100
0.415536 0.079986 0.238826 255 100 100
0.144435 -0.128779 0.231141 255 100 100
-0.196511 0.089924 -0.373178 255 100 100
-0.112261 -0.029293 0.327213 255 100 100
-0.624603 0.013179 -0.039945 255 100 100
0.587250 -0.117357 0.387090 255 100 100
-0.105386 0.319879 -0.293700 255 100 100
0.214107 -0.105924 0.146702 255 100 100
0.107703 0.193894 0.156939 255 100 100
0.045021 -0.579618 -0.010595 255 100 100
-0.287611 0.122588 0.164742 255 100 100
-0.231162 0.365711 -0.140510 255 100 100
0.154747 -0.023043 0.264583 255 100 100
0.249602 0.035851 0.343297 255 100 100
0.181019 -0.237587 0.275856 255 100 100
-0.109036 -0.378332 0.340420 255 100 100
-0.346860 0.141891 0.307283 255 100 100
0.477603 -0.271477 -0.029768 255 100 100
0.218636 0.127651 -0.255530 255 100 100
-0.753884 -0.081369 0.080786 255 100 100
0.130799 -0.143294 0.205362 255 100 100
-0.131241 0.229448 -0.040808 255 100 100
-0.005694 -0.068131 -0.423951 255 100 100
0.091023 -0.273095 0.250360 255 100 100
0.263873 -0.179626 0.063442 255 100 100
0.002257 -0.249140 -0.476758 255 100 100
0.336589 -0.653620 -0.257195 255 100 100
-0.208144 0.475768 0.188558 255 100 100
-0.446853 -0.080876 0.152883 255 100 100
-0.345685 0.213736 -0.089937 255 100 100
0.188336 0.394644 -0.214906 255 100 100
-0.156603 -0.414889 0.519916 255 100 100
-0.024517 -0.356996 0.509820 255 100 100
-0.089590 -0.028746 0.422799 255 100 100
0.169256 0.030492 0.246200 255 100 100
0.287226 -0.225287 -0.163581 255 100 100
0.044868 0.029507 0.249451 255 100 100
-0.576201 -0.280282 -0.033768 255 100 100
0.364778 0.205559 0.602820 255 100 100
0.259104 -0.447323 -0.060560 255 100 100
-0.114656 0.319516 -0.073348 255 100 100
0.102532 0.209645 -0.212722 255 100 100
-0.304327 0.352374 -0.234608 255 100 100
0.194035 0.373222 0.431078 255 100 100
-0.135722 0.167908 0.415109 255 100 100
0.057345 -0.374160 -0.461177 255 100 100
0.022635 0.197595 -0.035928 255 100 100
0.275681 -0.008593 0.109036 255 100 100
-0.076086 -0.429719 0.340195 255 100 100
-0.008984 0.197404 -0.343410 255 100 100
-0.494672 -0.048010 0.246010 255 100 100
0.157541 0.337099 -0.308571 255 100 100
-0.377880 0.122061 -0.457580 255 100 100
0.479364 -0.119143 0.032866 255 100 100
-0.085980 -0.528168 -0.146814 255 100 100
-0.268674 -0.623182 -0.010287 255 100 100
0.204250 0.012138 0.031150 255 100 100
-0.126427 0.045061 0.392687 255 100 100
-0.594293 -0.049077 -0.042326 255 100 100
0.244068 0.004833 -0.082141 255 100 100
0.160607 -0.013636 -0.414551 255 100 100
0.541425 -0.048909 0.464204 255 100 100
0.042370 0.207099 -0.028353 255 100 100
-0.089132 -0.153836 0.326161 255 100 100
-0.492372 -0.491416 0.033000 255 100 100
-0.059511 0.458874 -0.618282 255 100 100
0.260045 -0.034406 -0.066946 255 100 100
0.131178 0.197171 -0.145428 255 100 100
0.115345 0.210684 0.166946 255 100 100
0.118016 -0.067795 -0.366497 255 100 100
0.472338 0.090234 0.114636 255 100 100
0.017855 0.261283 -0.341503 255 100 100
-0.147475 -0.263485 0.530360 255 100 100
-0.416212 -0.234183 0.218559 255 100 100
-0.112104 -0.142681 -0.622875 255 100 100
-0.272493 0.189039 -0.218324 255 100 100
0.079133 -0.482003 -0.058807 255 100 100
0.326970 -0.290942 -0.182081 255 100 100
-0.200271 0.511865 -0.058172 255 100 100
0.147147 -0.248440 0.204369 255 100 100
-0.644285 -0.231374 -0.225158 255 100 100
0.085147 0.070667 0.176742 255 100 100
-0.106605 0.349677 -0.019999 255 100 100
0.148788 0.076770 -0.214520 255 100 100
-0.016473 0.275257 0.244220 255 100 100
0.488376 -0.081824 -0.868789 255 100 100
0.033629 -0.171096 -0.438566 255 100 100
0.106347 0.067206 0.201810 255 100 100
0.327335 0.065694 -0.327072 255 100 100
0.137046 0.129912 0.442176 255 100 100
-0.216301 0.350113 0.336235 255 100 100
0.337161 -0.296763 -0.200616 255 100 100
-0.346919 0.021176 0.347502 255 100 100
0.825091 0.121154 -0.219704 255 100 100
-0.645555 0.033219 0.032364 255 100 100
-0.569262 -0.047082 0.297023 255 100 100
-0.256810 -0.314785 0.318561 255 100 100
0.308994 0.082625 0.300897 255 100 100
0.266296 -0.001195 -0.165057 255 100 100
0.341482 -0.079531 0.284346 255 100 100
0.444965 0.653684 -0.094057 255 100 100
0.078575 -0.434949 0.123652 255 100 100
0.707734 0.275512 0.129771 255 100 100
0.219104 -0.163294 0.319957 255 100 100
0.067120 -0.451451 -0.219297 255 100 100
0.036866 0.469967 0.388319 255 100 100
0.215578 0.320307 -0.688359 255 100 100
-0.449295 -0.292159 -0.282394 255 100 100
0.305431 -0.151421 0.004597 255 100 100
0.234202 -0.122535 -0.012225 255 100 100
0.346952 -0.119732 0.148456 255 100 100
-0.099934 0.176831 0.158011 255 100 100
0.204763 -0.090161 -0.344555 255 100 100
-0.380827 0.198608 -0.184791 255 100 100
-0.466481 -0.571962 -0.298352 255 100 100
0.058945 0.296107 0.316839 255 100 100
0.108341 0.190369 -0.179562 255 100 100
0.257228 -0.148683 0.217984 255 100 100
0.324861 -0.646102 -0.260730 255 100 100
-0.473320 -0.040336 0.103969 255 100 100
-0.131780 -0.127402 0.369699 255 100 100
0.068096 0.246978 0.010737 255 100 100
-0.546704 -0.296437 -0.113342 255 100 100
-0.731438 0.040851 -0.159743 255 100 100
0.402479 -0.169036 0.154753 255 100 100
-0.174063 0.083509 -0.444236 255 100 100
-0.112532 -0.546307 -0.171662 255 100 100
-0.013528 0.500735 0.071378 255 100 100
-0.144700 0.289343 -0.098538 255 100 100
-0.132180 -0.210427 0.332657 255 100 100
-0.387353 0.231988 0.173808 255 100 100
-0.556586 0.213317 -0.288217 255 100 100
-0.134633 -0.096164 0.526144 255 100 100
-0.219237 0.206223 0.028069 255 100 100
-0.384875 -0.387983 -0.226791 255 100 100
-0.316163 0.040557 -0.411693 255 100 100
-0.430957 0.063250 0.073026 255 100 100
-0.271921 -0.611013 -0.236877 255 100 100
0.160568 -0.306363 0.184912 255 100 100
-0.331944 0.190470 -0.011456 255 100 100
0.498788 -0.127693 0.137120 255 100 100
0.107907 0.154199 -0.224987 255 100 100
0.170353 -0.357826 -0.177590 255 100 100
0.221034 -0.138589 -0.396989 255 100 100
0.279898 0.093748 0.024355 255 100 100
0.422300 -0.281646 -0.425647 255 100 100
0.067009 -0.461743 0.127930 255 100 100
0.212481 0.000651 -0.045851 255 100 100
-0.077293 0.000552 0.464561 255 100 100
-0.271048 0.263096 -0.005376 255 100 100
-0.063369 -0.102480 -0.488230 255 100 100
0.313123 0.239751 -0.350377 255 100 100
0.209027 -0.674056 -0.485420 255 100 100
-0.654602 -0.150378 0.079887 255 100 100
0.439262 -0.031319 0.007164 255 100 100
0.264707 0.169661 -0.118871 255 100 100
0.399309 0.006501 -0.180209 255 100 100
0.588911 0.188368 0.064475 255 100 100
-0.519776 0.089105 0.059694 255 100 100
0.397682 -0.033855 -0.132219 255 100 100
-0.414432 0.189864 0.165856 255 100 100
0.140942 0.375421 -0.459438 255 100 100
-0.597862 0.029321 0.071600 255 100 100
-0.037569 -0.403751 -0.361264 255 100 100
-0.386963 -0.595370 -0.234298 255 100 100
-0.245828 0.372453 0.327853 255 100 100
-0.448077 0.088795 -0.526169 255 100 100
0.041204 0.245762 -0.063509 255 100 100
0.276087 0.264307 -0.297870 255 100 100
0.098776 0.230675 -0.277097 255 100 100
0.384497 0.103623 -0.279158 255 100 100
0.071785 -0.534303 -0.419271 255 100 100
0.266686 -0.090372 -0.042910 255 100 100
0.121555 0.248217 -0.115047 255 100 100
0.487277 -0.179197 0.387480 255 100 100
0.003145 0.285077 -0.291699 255 100 100
0.177152 -0.115856 -0.260881 255 100 100
-0.360180 0.058810 -0.277057 255 100 100
0.222915 -0.128464 -0.463108 255 100 100
-0.172115 -0.122343 0.327528 255 100 100
-0.456568 0.046519 -0.364811 255 100 100
0.037949 -0.356129 0.380076 255 100 100
-0.362705 -0.588546 0.057991 255 100 100
0.061556 0.278248 0.022694 255 100 100
0.071421 0.184965 0.271833 255 100 100
0.022313 0.157783 -0.216601 255 100 100
0.146327 -0.104773 0.304075 255 100 100
0.104373 0.275526 -0.179993 255 100 100
0.490428 -0.178377 0.380466 255 100 100
-0.268615 -0.057463 0.389738 255 100 100
-0.363024 0.131739 -0.293658 255 100 100
0.015503 0.271033 -0.103932 255 100 100
-0.543460 -0.134052 0.030419 255 100 100
0.091231 0.351531 -0.422001 255 100 100
0.136735 0.104537 -0.373373 255 100 100
0.098301 0.242282 -0.015408 255 100 100
0.162393 0.168574 -0.358713 255 100 100
0.015767 -0.363366 -0.437795 255 100 100
0.018256 -0.661742 0.059736 255 100 100
-0.238806 -0.182546 0.354426 255 100 100
-0.120915 -0.652903 0.344519 255 100 100
0.136881 0.079471 0.092428 255 100 100
-0.319257 -0.053640 0.295280 255 100 100
0.032831 0.187317 -0.493762 255 100 100
0.151791 -0.166412 0.184903 255 100 100
-0.543033 0.037809 -0.159495 255 100 100
-0.261139 0.223647 -0.494000 255 100 100
-0.235738 0.017182 -0.494468 255 100 100
0.293114 -0.555363 -0.076662 255 100 100
0.260404 -0.404825 0.075164 255 100 100
0.359921 -0.387650 0.157199 255 100 100
0.154246 0.273682 -0.260165 255 100 100
0.104872 0.036459 0.181771 255 100 100
0.085692 -0.041107 -0.522574 255 100 100
-0.269839 -0.166383 -0.484524 255 100 100
-0.559529 0.060957 0.056691 255 100 100
0.192576 0.188375 -0.217765 255 100 100
-0.448372 -0.384536 -0.379040 255 100 100
0.030733 -0.628976 0.108395 255 100 100
-0.010507 0.191351 -0.241334 255 100 100
0.402294 0.192413 -0.047353 255 100 100
0.553784 0.009290 0.181892 255 100 100
0.195952 -0.076035 -0.502456 255 100 100
0.042212 -0.423656 -0.487240 255 100 100
0.072392 -0.354298 0.310509 255 100 100
0.028917 -0.270407 0.575831 255 100 100
-0.049319 0.107937 0.390538 255 100 100
-0.029255 -0.466035 0.306716 255 100 100
0.237957 0.148325 0.264495 255 100 100
-0.316994 -0.166044 0.288568 255 100 100
0.193243 -0.417306 0.139828 255 100 100
-0.142902 0.232040 -0.252106 255 100 100
0.337954 0.092489 0.315751 255 100 100
0.203888 0.169029 0.082196 255 100 100
-0.387595 0.157940 0.143201 255 100 100
0.083613 0.444312 0.246867 255 100 100
-0.001026 0.271965 0.192882 255 100 100
