ply
format ascii 1.0
element vertex 1059
property float x
property float y
property float z
property uchar red
property uchar green
property uchar blue
end_header
-0.028125 -0.136894 0.076384 255 100 100
0.224481 -0.100963 0.011001 255 100 100
-0.057298 0.049423 0.193928 255 100 100
-0.042841 0.157610 0.085777 255 100 100
0.154948 -0.037238 0.217942 255 100 100
-0.309783 0.406948 -0.068574 255 100 100
0.023775 0.176644 -0.128329 255 100 100
0.016252 -0.084351 0.107264 255 100 100
0.299897 -0.339531 -0.255591 255 100 100
0.118632 0.159014 0.095619 255 100 100
-0.096233 0.122853 0.152602 255 100 100
0.064936 0.155339 0.550619 255 100 100
0.249453 -0.012687 0.141183 255 100 100
0.019256 0.124962 0.159887 255 100 100
-0.160110 -0.108466 -0.545411 255 100 100
0.450808 -0.233356 0.261610 255 100 100
0.169981 -0.128959 -0.125985 255 100 100
0.569267 -0.108494 -0.225118 255 100 100
0.267133 0.371998 -0.628460 255 100 100
0.079966 0.474241 0.324204 255 100 100
-0.029740 -0.063217 -0.382713 255 100 100
-0.036584 0.290899 0.184342 255 100 100
-0.311623 0.054078 -0.207972 255 100 100
0.099722 0.521037 -0.560707 255 100 100
0.000935 -0.363172 -0.127094 255 100 100
0.437174 0.278293 -0.497475 255 100 100
0.071581 0.156570 -0.420302 255 100 100
-0.006230 -0.479495 0.032210 255 100 100
0.215187 -0.446804 -0.249800 255 100 100
0.084615 0.122403 -0.408504 255 100 100
0.057630 0.022809 -0.161218 255 100 100
0.215112 -0.432064 0.051033 255 100 100
0.392961 0.354746 -0.127129 255 100 100
-0.224303 -0.542053 0.334273 255 100 100
0.158620 -0.221237 -0.310246 255 100 100
0.624620 0.219945 -0.078902 255 100 100
0.176263 -0.219951 0.071723 255 100 100
-0.249112 0.213660 0.008919 255 100 100
-0.192148 -0.398386 -0.274334 255 100 100
-0.060004 0.165229 0.343440 255 100 100
-0.072928 -0.122106 0.402041 255 100 100
-0.061398 -0.111908 -0.138220 255 100 100
0.345398 -0.185671 0.102609 255 100 100
-0.301720 0.025802 -0.294110 255 100 100
0.067245 0.199624 -0.125982 255 100 100
-0.187181 -0.025372 0.040659 255 100 100
-0.073091 -0.081034 -0.155362 255 100 100
-0.203763 -0.274929 0.047465 255 100 100
0.479376 0.376277 -0.125542 255 100 100
0.175397 0.198804 -0.474808 255 100 100
0.019968 -0.349392 0.055098 255 100 100
0.040655 -0.190034 0.164848 255 100 100
0.037590 -0.065511 -0.090190 255 100 100
-0.023918 -0.079783 -0.099550 255 100 100
0.109980 -0.105276 -0.019631 255 100 100
0.321615 -0.226608 -0.251001 255 100 100
-0.147825 0.067366 -0.105333 255 100 100
0.084841 -0.139288 0.437861 255 100 100
0.063234 -0.047060 0.143631 255 100 100
0.109126 -0.044930 -0.039871 255 100 100
-0.148972 -0.198177 0.010532 255 100 100
-0.003459 -0.106270 0.077250 255 100 100
-0.323780 0.065873 0.048419 255 100 100
0.116130 0.243320 -0.341313 255 100 100
-0.044988 0.357006 0.126442 255 100 100
-0.361371 0.279449 -0.229341 255 100 100
0.203785 0.212151 -0.140474 255 100 100
-0.344059 -0.357382 0.152569 255 100 100
-0.094926 -0.010333 0.061307 255 100 100
0.135610 -0.357166 0.022056 255 100 100
0.430457 0.147361 -0.251918 255 100 100
-0.048757 -0.236801 0.018323 255 100 100
0.005140 0.350564 0.357445 255 100 100
-0.346432 -0.198251 0.274016 255 100 100
-0.092056 -0.177571 0.051102 255 100 100
-0.068814 -0.506455 -0.379109 255 100 100
0.075456 0.022643 0.154458 255 100 100
-0.278990 0.041755 0.328016 255 100 100
0.195103 -0.022451 -0.443359 255 100 100
0.233923 -0.223986 0.484344 255 100 100
-0.286245 -0.246507 0.022801 255 100 100
0.377925 -0.462677 -0.310610 255 100 100
-0.474881 -0.113257 -0.084866 255 100 100
0.254937 -0.148753 0.095501 255 100 100
-0.076489 -0.092821 0.152453 255 100 100
-0.493600 -0.173184 0.122782 255 100 100
0.506353 0.094311 -0.159297 255 100 100
-0.340747 -0.322934 -0.183512 255 100 100
-0.261401 -0.127332 0.366197 255 100 100
-0.530359 -0.226985 0.074769 255 100 100
0.343744 -0.166940 0.104341 255 100 100
-0.317328 0.021193 -0.329781 255 100 100
0.050920 0.208273 0.341549 255 100 100
0.076221 0.345137 -0.101282 255 100 100
0.143850 0.005160 -0.038634 255 100 100
-0.289564 -0.094703 0.207230 255 100 100
-0.003989 0.117611 0.201165 255 100 100
0.403990 0.093427 0.170186 255 100 100
0.035753 -0.262991 -0.183867 255 100 100
0.012525 -0.122295 0.104082 255 100 100
0.032368 -0.369109 0.093349 255 100 100
0.432664 0.137794 0.464811 255 100 100
-0.319160 -0.570205 0.382261 255 100 100
0.145080 -0.068729 -0.267914 255 100 100
0.189393 -0.091336 0.178961 255 100 100
0.598146 -0.001810 -0.067202 255 100 100
-0.503333 0.230085 0.058223 255 100 100
0.465445 0.293155 -0.177333 255 100 100
-0.129007 -0.097755 0.145892 255 100 100
-0.161856 -0.212305 0.088697 255 100 100
0.286978 -0.157862 -0.487796 255 100 100
0.147041 0.163535 -0.118571 255 100 100
-0.585061 0.311984 -0.000392 255 100 100
0.110524 0.079282 -0.255614 255 100 100
-0.033312 -0.362151 -0.295164 255 100 100
-0.262147 -0.126504 -0.067512 255 100 100
-0.296819 -0.548797 0.225168 255 100 100
-0.477657 -0.116823 -0.132291 255 100 100
-0.021063 0.096355 0.181706 255 100 100
0.096008 -0.091411 -0.048782 255 100 100
-0.215212 0.521187 -0.082573 255 100 100
0.278844 0.471332 -0.385000 255 100 100
-0.062304 -0.452401 0.231297 255 100 100
0.422523 0.470234 -0.185004 255 100 100
0.064405 0.210561 -0.180103 255 100 100
-0.106407 0.198784 -0.224864 255 100 100
0.130785 -0.327315 -0.047532 255 100 100
-0.034204 -0.031506 0.136459 255 100 100
0.460895 -0.333152 -0.126485 255 100 100
-0.486005 0.230992 0.227079 255 100 100
-0.092819 0.183034 0.193729 255 100 100
0.177474 -0.005394 -0.099941 255 100 100
0.407319 0.380952 0.142510 255 100 100
-0.083372 -0.149538 0.292250 255 100 100
0.024997 -0.106780 0.210952 255 100 100
0.052507 -0.238821 -0.145479 255 100 100
-0.066353 0.240304 -0.249815 255 100 100
-0.215954 0.244301 0.021536 255 100 100
-0.229534 -0.132624 0.231107 255 100 100
0.279890 -0.196159 -0.077479 255 100 100
0.099271 -0.214554 0.259986 255 100 100
-0.250546 -0.585452 0.033375 255 100 100
0.310788 -0.006016 -0.002941 255 100 100
-0.030090 -0.139794 0.025713 255 100 100
0.374699 -0.204671 0.457697 255 100 100
0.057335 -0.068705 -0.181842 255 100 100
-0.165505 0.104807 -0.266058 255 100 100
-0.328528 -0.292739 -0.017934 255 100 100
0.164644 -0.027729 0.107789 255 100 100
-0.180533 -0.001850 -0.183607 255 100 100
0.192205 -0.030308 0.177886 255 100 100
-0.328762 0.093918 -0.498487 255 100 100
-0.073198 -0.166326 0.179004 255 100 100
-0.131909 0.167211 -0.078536 255 100 100
-0.074848 -0.400621 0.282963 255 100 100
0.247859 0.501047 0.060831 255 100 100
-0.186708 -0.166977 -0.120517 255 100 100
-0.187774 0.338257 0.198351 255 100 100
-0.087770 0.219949 -0.368477 255 100 100
0.109986 0.123096 -0.402647 255 100 100
0.121913 -0.223783 0.157253 255 100 100
-0.034301 -0.001665 -0.129028 255 100 100
-0.688377 -0.529716 -0.247072 255 100 100
0.199459 0.214955 -0.560290 255 100 100
-0.406088 0.246964 0.256965 255 100 100
0.285786 -0.024696 0.189253 255 100 100
0.272037 -0.371930 -0.171344 255 100 100
0.000740 0.204223 -0.164575 255 100 100
-0.355683 -0.086254 -0.478800 255 100 100
-0.189649 -0.362677 -0.008206 255 100 100
-0.463601 -0.281208 0.131025 255 100 100
0.162062 -0.085152 0.398306 255 100 100
0.310036 0.122109 0.443018 255 100 100
0.163366 0.200938 0.094250 255 100 100
0.012169 0.101249 0.302827 255 100 100
-0.113095 -0.318493 0.066535 255 100 100
-0.100472 -0.574581 0.403599 255 100 100
-0.260167 0.176496 -0.550070 255 100 100
0.388825 -0.405742 0.169131 255 100 100
-0.090515 -0.022196 0.200104 255 100 100
0.296665 -0.513423 0.246524 255 100 100
-0.193723 0.055703 0.119306 255 100 100
-0.159310 -0.011887 0.088995 255 100 100
-0.271041 0.014773 -0.479715 255 100 100
-0.200746 0.032138 -0.005867 255 100 100
0.038030 -0.217211 -0.044784 255 100 100
-0.073413 0.140882 -0.047263 255 100 100
-0.109809 0.018607 0.306665 255 100 100
-0.173407 -0.121077 0.302265 255 100 100
0.587591 0.250871 0.094846 255 100 100
-0.141329 0.416452 -0.121324 255 100 100
0.126111 -0.302887 -0.221225 255 100 100
0.019141 0.169330 -0.201165 255 100 100
-0.195128 0.387458 0.022031 255 100 100
-0.235145 0.492621 0.508636 255 100 100
-0.099252 0.181361 -0.035491 255 100 100
0.027922 0.580778 0.052301 255 100 100
-0.045806 0.129661 0.277734 255 100 100
-0.464829 -0.023508 -0.044802 255 100 100
0.046578 0.001134 0.087148 255 100 100
-0.247062 0.276007 0.197211 255 100 100
0.158784 -0.274605 -0.214142 255 100 100
-0.286757 -0.062684 0.411991 255 100 100
-0.048827 0.215779 -0.055518 255 100 100
-0.185555 -0.175616 0.371721 255 100 100
0.286415 -0.030891 -0.033556 255 100 100
-0.220660 -0.078735 0.150756 255 100 100
-0.032434 -0.440235 0.174297 255 100 100
-0.471684 -0.036649 -0.107436 255 100 100
-0.330290 -0.060340 -0.243579 255 100 100
-0.127873 -0.389434 0.061659 255 100 100
0.173556 0.022787 0.131198 255 100 100
0.094590 -0.068120 -0.588089 255 100 100
0.019581 -0.415298 0.054477 255 100 100
0.141419 -0.303291 -0.443145 255 100 100
-0.125321 -0.195149 0.025321 255 100 100
-0.105563 0.147142 -0.015041 255 100 100
0.102027 -0.247457 0.144854 255 100 100
0.368635 -0.425577 -0.095627 255 100 100
0.480527 0.281363 0.268491 255 100 100
-0.016543 0.170824 -0.151090 255 100 100
-0.005348 -0.125601 -0.068413 255 100 100
0.015963 -0.004476 -0.186896 255 100 100
0.186318 0.203717 0.292543 255 100 100
-0.072753 -0.007514 -0.008984 255 100 100
0.111907 -0.003770 0.533200 255 100 100
-0.010182 0.274751 0.160994 255 100 100
0.100202 -0.178698 -0.170852 255 100 100
-0.084194 0.043429 -0.136359 255 100 100
0.389442 -0.207853 -0.645028 255 100 100
-0.352215 0.186904 0.204530 255 100 100
0.195561 0.047376 -0.037477 255 100 100
0.189623 -0.000286 0.102858 255 100 100
0.246398 -0.125043 0.011810 255 100 100
-0.190023 -0.158532 -0.538597 255 100 100
0.101780 0.042181 -0.232582 255 100 100
-0.295097 -0.248077 -0.117298 255 100 100
-0.035554 -0.110623 0.121107 255 100 100
0.493750 -0.081677 0.239391 255 100 100
0.165537 -0.146233 0.027625 255 100 100
-0.108052 -0.014242 0.313247 255 100 100
0.054007 -0.505522 -0.103895 255 100 100
0.279819 -0.278184 0.073379 255 100 100
0.117131 0.236575 0.073377 255 100 100
-0.338835 -0.024298 0.012393 255 100 100
-0.298546 0.016730 -0.296257 255 100 100
-0.194251 0.162220 0.601266 255 100 100
0.217022 0.197911 0.535766 255 100 100
0.341261 0.189936 -0.151098 255 100 100
-0.144319 -0.295361 -0.365368 255 100 100
0.348678 0.196243 -0.061899 255 100 100
-0.078202 -0.119525 0.097476 255 100 100
0.048886 0.294190 -0.293187 255 100 100
-0.003572 -0.096680 0.224980 255 100 100
0.397668 -0.413039 -0.247208 255 100 100
0.047568 -0.165998 -0.069948 255 100 100
-0.002344 0.161146 0.057535 255 100 100
-0.075779 -0.116808 -0.032834 255 100 100
0.079574 -0.076315 0.231653 255 100 100
-0.269831 -0.190906 0.004555 255 100 100
0.171950 -0.240677 -0.224296 255 100 100
0.268462 0.019796 -0.054586 255 100 100
0.169490 0.056916 -0.144916 255 100 100
0.010434 0.048603 -0.213548 255 100 100
0.070673 0.478479 0.148505 255 100 100
-0.043099 0.013584 0.523049 255 100 100
-0.408796 -0.070280 0.217554 255 100 100
0.159842 -0.053504 0.469812 255 100 100
-0.035426 0.326643 -0.027891 255 100 100
-0.352585 -0.126216 -0.353797 255 100 100
-0.626198 -0.615918 0.012552 255 100 100
-0.203698 0.495897 -0.040982 255 100 100
0.303448 -0.157048 -0.184298 255 100 100
-0.221270 0.173529 -0.080948 255 100 100
0.056572 -0.043593 0.131128 255 100 100
0.429495 0.178414 -0.105648 255 100 100
-0.185650 -0.009182 0.163166 255 100 100
0.154326 -0.095204 0.028589 255 100 100
0.188954 0.063554 -0.219116 255 100 100
0.014731 -0.090751 -0.121564 255 100 100
0.030400 0.039308 -0.437231 255 100 100
-0.192360 0.121808 0.242747 255 100 100
-0.418661 -0.112375 -0.166169 255 100 100
0.145927 -0.002138 0.128270 255 100 100
0.204096 -0.002022 -0.211185 255 100 100
-0.114731 0.283828 -0.007449 255 100 100
-0.118175 0.102871 -0.170814 255 100 100
0.059774 -0.822247 0.565984 255 100 100
-0.093090 0.316718 0.256735 255 100 100
0.194591 -0.081228 0.064705 255 100 100
0.003735 -0.175534 0.261736 255 100 100
0.160702 -0.196115 -0.079107 255 100 100
-0.281771 -0.174098 0.164361 255 100 100
0.250889 -0.090632 -0.309665 255 100 100
0.128856 0.314833 -0.389646 255 100 100
0.119473 -0.016526 0.110328 255 100 100
-0.284859 0.463735 0.140222 255 100 100
-0.203053 0.141137 -0.105935 255 100 100
-0.113472 -0.101409 0.258145 255 100 100
-0.529568 -0.012978 0.117737 255 100 100
-0.192415 -0.005149 0.026284 255 100 100
0.113925 0.013281 -0.056389 255 100 100
-0.069896 -0.356987 0.231403 255 100 100
0.363405 -0.112253 0.083146 255 100 100
-0.264652 -0.256625 -0.126297 255 100 100
-0.309467 0.102201 -0.334017 255 100 100
-0.183463 -0.198104 0.114745 255 100 100
0.177398 0.030037 0.059718 255 100 100
0.093290 0.074960 -0.369178 255 100 100
-0.181889 -0.385705 0.386665 255 100 100
-0.380271 -0.025767 0.343347 255 100 100
0.268172 0.147549 -0.515545 255 100 100
-0.227683 0.128471 0.119429 255 100 100
-0.257079 -0.232234 0.427476 255 100 100
0.008401 0.210172 -0.040985 255 100 100
0.207253 -0.021324 0.364947 255 100 100
0.140379 0.058480 -0.624855 255 100 100
-0.128243 0.058746 -0.256819 255 100 100
0.309167 0.323900 0.195640 255 100 100
0.176993 0.059961 0.114269 255 100 100
0.183852 0.327143 -0.093453 255 100 100
0.034067 -0.043557 0.008545 255 100 100
0.367132 -0.035108 -0.202833 255 100 100
0.160692 0.291725 -0.419227 255 100 100
-0.058849 0.014676 0.224021 255 100 100
0.067561 0.188580 -0.177250 255 100 100
0.180302 -0.015874 0.089585 255 100 100
0.142407 -0.336632 0.064750 255 100 100
0.119308 -0.220796 -0.061161 255 100 100
-0.102189 -0.401221 -0.027188 255 100 100
-0.304878 0.004419 0.200434 255 100 100
0.115085 -0.057325 0.156608 255 100 100
0.005995 -0.231240 -0.188835 255 100 100
-0.040666 -0.131592 0.237009 255 100 100
-0.142604 -0.000607 -0.456374 255 100 100
-0.077662 0.231993 0.245654 255 100 100
0.201906 -0.264545 -0.055077 255 100 100
0.064917 0.342176 -0.263634 255 100 100
0.053921 0.075728 0.088934 255 100 100
0.075006 -0.273297 0.230141 255 100 100
-0.361770 -0.282492 0.293884 255 100 100
-0.211822 0.075941 -0.229623 255 100 100
-0.148987 0.340499 0.181226 255 100 100
-0.278426 -0.136975 -0.159747 255 100 100
0.479950 -0.021942 -0.255300 255 100 100
0.521416 0.245071 0.004855 255 100 100
0.262380 0.032311 0.048197 255 100 100
0.061764 -0.028730 -0.079899 255 100 100
-0.258242 0.294146 -0.124330 255 100 100
0.291799 -0.041703 0.156068 255 100 100
-0.467198 0.022268 -0.272908 255 100 100
-0.075772 -0.046257 0.080416 255 100 100
-0.203462 -0.289124 0.470588 255 100 100
-0.059900 0.249357 0.199253 255 100 100
0.319571 0.361621 -0.300913 255 100 100
0.188241 0.387818 -0.023608 255 100 100
-0.191525 -0.039296 0.371513 255 100 100
0.021937 0.101716 -0.225389 255 100 100
-0.088390 0.088815 -0.055324 255 100 100
-0.100271 -0.048983 0.086403 255 100 100
0.264042 0.263194 -0.139429 255 100 100
0.169874 0.166154 0.127141 255 100 100
0.125798 -0.037697 0.158213 255 100 100
-0.014190 0.105739 -0.346811 255 100 100
0.065097 -0.030302 -0.294984 255 100 100
0.201358 -0.171125 -0.107939 255 100 100
0.111599 0.131379 -0.028335 255 100 100
0.200004 -0.282504 0.197850 255 100 100
-0.105781 0.203032 0.013725 255 100 100
-0.108857 -0.159274 -0.082668 255 100 100
0.488320 0.434722 0.058026 255 100 100
-0.073895 0.085611 -0.192728 255 100 100
-0.153411 -0.182616 -0.408699 255 100 100
-0.267234 0.218146 -0.066998 255 100 100
-0.132048 0.329035 -0.393035 255 100 100
-0.284866 0.074798 0.290697 255 100 100
-0.179931 -0.139526 0.152876 255 100 100
0.106047 0.098323 0.246038 255 100 100
0.222672 0.191522 -0.138894 255 100 100
0.120658 -0.238888 -0.365941 255 100 100
-0.224277 -0.085103 0.013126 255 100 100
-0.076650 0.106607 0.041866 255 100 100
-0.525245 0.004745 -0.023428 255 100 100
0.257645 0.192736 0.267961 255 100 100
-0.151950 0.384676 0.107814 255 100 100
0.133231 0.063565 0.196650 255 100 100
0.039702 -0.204787 0.020351 255 100 100
-0.071070 -0.125293 0.185118 255 100 100
-0.133222 -0.217035 -0.408697 255 100 100
0.280598 0.096743 -0.088671 255 100 100
-0.063322 0.254111 -0.092489 255 100 100
-0.341916 -0.259301 -0.167492 255 100 100
0.055829 -0.059759 0.350101 255 100 100
0.162855 0.253020 0.198454 255 100 100
0.145640 -0.152768 -0.101732 255 100 100
0.101040 0.234487 0.059912 255 100 100
-0.417588 0.004639 0.158580 255 100 100
-0.012398 0.015994 -0.094127 255 100 100
0.428712 -0.401431 -0.155464 255 100 100
0.073758 0.247989 -0.004802 255 100 100
-0.163421 0.318031 0.084094 255 100 100
-0.156866 0.051026 -0.306987 255 100 100
0.097254 -0.182576 0.043448 255 100 100
0.251447 -0.238987 0.029000 255 100 100
0.309962 0.158184 -0.382784 255 100 100
0.226326 -0.226153 -0.047944 255 100 100
-0.241569 -0.097856 -0.389247 255 100 100
-0.161120 0.228714 0.009351 255 100 100
0.298028 0.254859 -0.147885 255 100 100
0.018286 -0.040875 0.047468 255 100 100
0.039538 0.228433 -0.103954 255 100 100
-0.109201 0.071709 0.207738 255 100 100
-0.296093 -0.328253 0.101368 255 100 100
-0.076108 -0.107954 -0.282514 255 100 100
0.046627 -0.428178 -0.027241 255 100 100
-0.469036 0.029134 0.028707 255 100 100
-0.114646 0.099962 -0.039191 255 100 100
-0.132794 0.264521 -0.379998 255 100 100
0.178130 0.090973 0.043056 255 100 100
-0.018676 -0.579841 -0.049027 255 100 100
-0.236685 -0.111604 -0.129014 255 100 100
0.154359 -0.243030 0.220663 255 100 100
0.121472 0.200932 0.285266 255 100 100
-0.447357 0.291092 0.028578 255 100 100
-0.170790 -0.150218 -0.166128 255 100 100
-0.064201 -0.113207 -0.156201 255 100 100
0.066931 0.074783 -0.096429 255 100 100
-0.229342 -0.046175 0.158481 255 100 100
-0.252347 0.058680 -0.428311 255 100 100
-0.061418 0.224735 -0.000060 255 100 100
0.129239 -0.106049 0.001409 255 100 100
-0.227003 0.291652 0.103346 255 100 100
0.133624 0.841768 0.168146 255 100 100
0.008388 -0.139197 0.126218 255 100 100
0.147709 0.133179 -0.335776 255 100 100
-0.241351 0.018940 -0.114475 255 100 100
-0.146833 0.122486 0.048660 255 100 100
0.138609 -0.068046 0.003918 255 100 100
-0.290824 0.149378 -0.310833 255 100 100
-0.013729 0.499283 -0.143618 255 100 100
0.009980 0.448214 0.174695 255 100 100
0.251452 0.282583 0.172822 255 100 100
-0.737898 -0.238570 -0.251382 255 100 100
-0.595106 -0.292838 0.176711 255 100 100
0.351974 0.192219 -0.330419 255 100 100
0.032200 -0.336924 0.042584 255 100 100
-0.409771 -0.060115 -0.300591 255 100 100
-0.259732 0.209741 -0.227777 255 100 100
0.106979 -0.192598 0.423117 255 100 100
0.425688 -0.024747 -0.050241 255 100 100
0.251218 0.228522 -0.128921 255 100 100
-0.210288 -0.029781 0.311214 255 100 100
-0.010795 0.368792 0.113438 255 100 100
0.689574 0.111050 0.279792 255 100 100
0.045507 -0.465682 0.232823 255 100 100
-0.111682 -0.156595 -0.174574 255 100 100
0.074624 -0.243030 -0.026842 255 100 100
0.047795 -0.111155 0.081332 255 100 100
-0.225705 -0.323341 0.000532 255 100 100
0.225307 0.141211 -0.063517 255 100 100
0.191920 -0.596156 -0.194917 255 100 100
-0.127956 -0.586995 0.013866 255 100 100
0.003723 -0.220582 0.372790 255 100 100
-0.225729 -0.005743 0.074316 255 100 100
-0.067090 0.089501 -0.324461 255 100 100
0.074647 0.034000 -0.152464 255 100 100
0.157077 -0.049731 -0.168519 255 100 100
-0.076019 0.387170 -0.338361 255 100 100
-0.267913 -0.168736 -0.032801 255 100 100
-0.106832 0.279324 0.276823 255 100 100
-0.031292 -0.220499 0.271697 255 100 100
-0.213907 -0.148448 0.049878 255 100 100
0.076931 -0.264506 0.153589 255 100 100
-0.026972 0.028359 0.025038 255 100 100
0.272862 0.256536 -0.084508 255 100 100
0.300239 0.283682 -0.037457 255 100 100
0.213569 -0.164649 -0.150786 255 100 100
0.476616 0.173608 -0.141179 255 100 100
0.099036 -0.139825 -0.017242 255 100 100
0.089215 -0.034267 0.206894 255 100 100
0.366700 -0.057503 -0.262771 255 100 100
0.174022 0.133312 0.162044 255 100 100
0.021861 -0.076079 -0.393314 255 100 100
0.024651 0.310475 0.135560 255 100 100
0.119441 0.015685 -0.087377 255 100 100
0.257985 0.143443 0.072171 255 100 100
0.156459 -0.015613 -0.427164 255 100 100
-0.365551 0.396641 -0.008766 255 100 100
0.078224 0.276444 0.147873 255 100 100
-0.272098 -0.088665 0.469006 255 100 100
-0.092833 -0.227626 0.035588 255 100 100
-0.206602 0.155398 0.181331 255 100 100
-0.015574 0.030042 -0.447057 255 100 100
-0.330392 -0.033791 -0.047892 255 100 100
0.527613 0.334658 -0.311809 255 100 100
0.009611 -0.200846 0.404662 255 100 100
0.291317 -0.104310 -0.369154 255 100 100
0.034554 0.354168 -0.302883 255 100 100
-0.402088 -0.393769 -0.140763 255 100 100
0.026201 -0.366580 -0.189712 255 100 100
0.226355 0.566806 0.205796 255 100 100
-0.217714 0.279170 0.555161 255 100 100
-0.109845 -0.268624 0.236162 255 100 100
0.147266 0.013383 0.120736 255 100 100
-0.039477 0.132448 0.408717 255 100 100
-0.116901 0.218065 0.224909 255 100 100
0.205663 -0.064112 0.231850 255 100 100
-0.116094 0.118870 0.161074 255 100 100
0.127702 -0.352127 -0.384597 255 100 100
0.033795 -0.171811 0.084330 255 100 100
0.027073 -0.426011 0.171018 255 100 100
-0.174381 -0.321741 -0.306010 255 100 100
0.268631 0.107776 -0.280208 255 100 100
0.284763 0.319107 0.141200 255 100 100
0.124112 -0.343389 0.447456 255 100 100
0.142766 -0.184153 -0.179150 255 100 100
0.254464 0.002417 0.046984 255 100 100
-0.269554 0.106819 0.266634 255 100 100
0.189750 0.087755 0.249839 255 100 100
-0.274694 0.513703 0.186267 255 100 100
0.108646 -0.228629 -0.327037 255 100 100
0.194638 0.010066 0.088482 255 100 100
0.198138 -0.059440 0.172496 255 100 100
-0.223144 0.074260 0.170825 255 100 100
0.257924 -0.127751 0.258116 255 100 100
-0.344443 -0.491358 0.124851 255 100 100
-0.415347 -0.018368 0.043017 255 100 100
-0.138243 -0.083227 0.302372 255 100 100
-0.257884 0.026776 -0.001938 255 100 100
-0.282828 -0.009084 0.074316 255 100 100
-0.237738 -0.148798 -0.209716 255 100 100
0.175390 0.203885 -0.101035 255 100 100
0.267342 -0.241192 0.265350 255 100 100
-0.011209 0.085758 -0.291328 255 100 100
0.251967 -0.121419 0.011606 255 100 100
0.096564 -0.113414 0.246803 255 100 100
0.199617 0.219702 -0.408020 255 100 100
0.389075 0.086912 -0.233882 255 100 100
-0.659768 0.360959 0.198722 255 100 100
-0.204542 0.445855 -0.055235 255 100 100
-0.089166 0.186043 0.390342 255 100 100
-0.096271 0.135766 0.521962 255 100 100
-0.043348 -0.006386 -0.150476 255 100 100
0.132314 0.271883 0.021980 255 100 100
0.061824 -0.299880 0.160746 255 100 100
-0.046811 0.119407 -0.070386 255 100 100
-0.238522 0.047409 -0.112742 255 100 100
-0.196568 0.234912 0.208158 255 100 100
0.130733 -0.155134 -0.203031 255 100 100
0.031209 -0.283385 0.077084 255 100 100
-0.013382 -0.017392 0.258465 255 100 100
-0.121094 0.192496 0.168542 255 100 100
0.293709 0.111565 0.142532 255 100 100
-0.229790 -0.054395 -0.161268 255 100 100
-0.194950 -0.173471 -0.054028 255 100 100
0.094994 0.076674 0.067351 255 100 100
-0.069554 0.508171 -0.412686 255 100 100
-0.119349 0.244606 0.604962 255 100 100
-0.149313 -0.190433 -0.046741 255 100 100
-0.385268 -0.339440 -0.241271 255 100 100
0.205576 -0.164013 -0.445731 255 100 100
-0.462776 -0.230734 -0.059192 255 100 100
0.066809 -0.429272 0.488079 255 100 100
0.161216 0.256574 0.210974 255 100 100
-0.029891 -0.058484 -0.060178 255 100 100
0.029067 0.241889 0.127403 255 100 100
0.399646 0.248967 -0.012791 255 100 100
-0.004825 -0.025915 0.079914 255 100 100
0.129220 0.155719 0.137567 255 100 100
-0.164432 -0.307301 -0.294697 255 100 100
-0.049022 -0.406397 0.426091 255 100 100
0.151510 -0.168062 -0.387191 255 100 100
0.239025 -0.039335 0.186442 255 100 100
-0.259018 0.008468 0.271725 255 100 100
-0.495419 0.039543 -0.145372 255 100 100
-0.013646 0.274797 0.044155 255 100 100
-0.004212 0.074611 0.111363 255 100 100
-0.199186 -0.096801 0.061904 255 100 100
0.115635 -0.179905 0.011587 255 100 100
-0.268737 0.087660 -0.399785 255 100 100
0.261755 -0.299603 0.049931 255 100 100
-0.082120 0.219841 0.524613 255 100 100
0.099630 -0.320532 0.150682 255 100 100
-0.418037 0.188368 -0.060341 255 100 100
0.145219 -0.081700 -0.254305 255 100 100
-0.133689 0.095535 -0.377530 255 100 100
0.049829 0.182347 0.115301 255 100 100
-0.409521 0.028056 -0.028166 255 100 100
-0.263638 0.066455 -0.303769 255 100 100
-0.313987 -0.336861 0.183011 255 100 100
-0.361665 0.235505 -0.036918 255 100 100
-0.234641 -0.235888 0.166900 255 100 100
-0.196871 0.105857 0.079769 255 100 100
0.003583 -0.105405 -0.129346 255 100 100
0.269071 0.038486 -0.059760 255 100 100
-0.005423 0.005010 0.221158 255 100 100
-0.353808 -0.350426 0.087394 255 100 100
-0.194049 0.203435 -0.273028 255 100 100
0.019100 0.076825 0.239610 255 100 100
-0.556958 0.325902 0.041157 255 100 100
-0.243168 -0.248274 0.193011 255 100 100
-0.267968 -0.035603 0.200063 255 100 100
-0.166482 0.046304 0.174973 255 100 100
0.310088 0.196237 0.108088 255 100 100
0.155853 -0.205073 -0.291494 255 100 100
-0.066779 0.052770 0.035216 255 100 100
0.058103 -0.066263 0.093324 255 100 100
0.081928 0.395019 0.297758 255 100 100
0.236113 0.260570 -0.310879 255 100 100
-0.536445 0.084084 0.042197 255 100 100
0.149165 -0.224631 -0.121826 255 100 100
0.106317 0.299505 -0.234954 255 100 100
0.066649 -0.283787 -0.135459 255 100 100
0.304392 0.048368 -0.428038 255 100 100
0.130180 -0.326871 -0.029447 255 100 100
-0.458128 -0.158066 0.023785 255 100 100
0.098482 -0.029821 0.159470 255 100 100
-0.176229 -0.166575 -0.301127 255 100 100
-0.197258 0.072605 0.145340 255 100 100
0.086507 -0.135354 -0.269648 255 100 100
-0.020589 0.070412 -0.141228 255 100 100
-0.211894 -0.248625 0.013128 255 100 100
0.139386 -0.211697 0.213190 255 100 100
0.085788 0.108943 -0.335621 255 100 100
0.055152 0.261042 -0.150606 255 100 100
-0.077565 -0.029512 0.112190 255 100 100
-0.092177 0.519211 0.019556 255 100 100
-0.033379 0.071213 -0.078525 255 100 100
-0.030678 -0.154153 -0.043512 255 100 100
0.542197 -0.107934 0.130390 255 100 100
-0.121236 -0.277034 0.188588 255 100 100
-0.019523 -0.112425 -0.069218 255 100 100
-0.009128 -0.227400 0.055744 255 100 100
-0.282751 -0.047730 0.017820 255 100 100
-0.007617 -0.270658 0.154308 255 100 100
-0.075089 0.073124 -0.275187 255 100 100
0.097180 -0.016029 -0.037620 255 100 100
0.155112 0.272919 -0.416512 255 100 100
0.096828 -0.185255 0.173224 255 100 100
-0.057034 0.051164 -0.085217 255 100 100
-0.171407 -0.094820 -0.088950 255 100 100
0.146830 -0.119850 -0.322839 255 100 100
-0.111664 0.097982 0.309023 255 100 100
-0.015868 -0.041365 0.176592 255 100 100
0.218750 -0.080960 -0.208639 255 100 100
-0.241298 0.412752 -0.079293 255 100 100
0.104514 -0.354703 0.030580 255 100 100
0.018232 0.053109 -0.155654 255 100 100
-0.005648 0.050850 -0.232460 255 100 100
0.167034 0.305942 -0.331039 255 100 100
0.245183 0.186868 0.091265 255 100 100
-0.061739 -0.095063 -0.132010 255 100 100
-0.017384 0.098380 0.126010 255 100 100
0.167796 0.415632 -0.231460 255 100 100
0.145411 0.315678 0.529153 255 100 100
-0.089041 0.376498 0.125153 255 100 100
-0.383451 -0.266404 0.183452 255 100 100
-0.212744 0.304713 0.051365 255 100 100
0.223222 0.277810 -0.072490 255 100 100
-0.249696 -0.187881 -0.086765 255 100 100
0.164249 0.018067 -0.168498 255 100 100
-0.100020 -0.427199 0.225339 255 100 100
-0.015552 -0.078796 0.096040 255 100 100
-0.060390 0.032958 -0.222939 255 100 100
-0.047514 0.121047 0.522267 255 100 100
-0.399575 -0.255990 0.117457 255 100 100
0.282862 0.230556 -0.190270 255 100 100
0.017564 0.134043 -0.031425 255 100 100
0.146319 -0.185270 -0.029683 255 100 100
0.160895 -0.113738 -0.031728 255 100 100
-0.271853 0.132055 0.241347 255 100 100
-0.163272 0.086097 0.043591 255 100 100
0.041482 0.172935 0.101781 255 100 100
0.154345 -0.023574 0.186851 255 100 100
0.216611 -0.158213 0.163396 255 100 100
0.121560 -0.034309 -0.228503 255 100 100
-0.090625 0.162241 -0.213629 255 100 100
0.048240 0.238911 -0.082038 255 100 100
0.289287 -0.649851 -0.205588 255 100 100
-0.420876 -0.019888 -0.098434 255 100 100
-0.199996 -0.154791 -0.478335 255 100 100
-0.110462 0.500322 -0.228103 255 100 100
0.186803 0.091777 0.031931 255 100 100
-0.038892 0.188278 -0.268336 255 100 100
-0.213182 0.181642 0.018207 255 100 100
-0.332864 -0.022782 0.367977 255 100 100
-0.034470 -0.002085 -0.136000 255 100 100
0.224980 -0.084553 0.047421 255 100 100
0.098021 0.097376 -0.344652 255 100 100
0.097161 -0.246755 0.389414 255 100 100
-0.034952 -0.106803 0.109802 255 100 100
0.033497 0.579667 0.273778 255 100 100
0.403403 0.124043 -0.296626 255 100 100
-0.188256 -0.251898 0.115804 255 100 100
0.038412 0.081409 0.026026 255 100 100
0.201971 0.029928 -0.015138 255 100 100
0.200471 0.318020 0.149498 255 100 100
0.505274 -0.076388 0.025527 255 100 100
0.032722 -0.036242 -0.267730 255 100 100
-0.114208 -0.543220 0.206505 255 100 100
0.276479 -0.383554 -0.049699 255 100 100
-0.439345 -0.161719 -0.055936 255 100 100
-0.261564 0.105275 -0.062498 255 100 100
0.074085 -0.021785 -0.133612 255 100 100
0.073006 -0.032276 0.174557 255 100 100
0.108099 -0.164997 -0.165743 255 100 100
-0.339073 -0.256647 0.016926 255 100 100
0.086333 0.198651 0.013324 255 100 100
-0.342143 0.130599 0.139245 255 100 100
-0.134961 0.031572 0.222533 255 100 100
0.481781 -0.070246 0.323658 255 100 100
-0.402164 -0.044876 -0.298530 255 100 100
0.257012 -0.106825 -0.069516 255 100 100
0.211993 -0.029574 0.135139 255 100 100
-0.085019 -0.181248 -0.329778 255 100 100
0.287891 0.131852 -0.199236 255 100 100
0.072680 -0.102528 -0.158638 255 100 100
0.004791 -0.278810 -0.279239 255 100 100
-0.378524 0.145468 -0.598714 255 100 100
-0.046569 0.125466 0.086103 255 100 100
-0.317761 -0.125936 0.207254 255 100 100
-0.073279 0.033342 0.019269 255 100 100
0.072882 0.161265 0.383217 255 100 100
0.309382 -0.082126 0.229508 255 100 100
0.376405 0.111821 0.054859 255 100 100
-0.046888 0.347705 0.111684 255 100 100
0.106428 -0.277645 -0.378502 255 100 100
0.079969 -0.151867 -0.425665 255 100 100
0.289405 -0.129509 -0.245845 255 100 100
0.152089 -0.303590 0.065514 255 100 100
0.007045 0.187708 -0.060782 255 100 100
-0.068465 -0.079156 -0.440353 255 100 100
0.402800 0.212863 0.000778 255 100 100
0.260304 -0.111580 0.256783 255 100 100
-0.179593 -0.033931 -0.062824 255 100 100
0.096328 -0.285060 0.115982 255 100 100
-0.305234 0.203234 0.101787 255 100 100
0.347150 0.121222 0.284898 255 100 100
0.092396 0.117514 -0.314351 255 100 100
0.299502 0.165398 0.062980 255 100 100
-0.011361 -0.325469 -0.074015 255 100 100
-0.229304 0.048639 0.061235 255 100 100
-0.400056 -0.171731 0.149941 255 100 100
0.027780 -0.057041 -0.366906 255 100 100
-0.107433 -0.048319 -0.514040 255 100 100
-0.023246 -0.005195 -0.125227 255 100 100
0.072644 0.493402 -0.210925 255 100 100
-0.047662 -0.007247 -0.247344 255 100 100
-0.257522 -0.296226 -0.010473 255 100 100
0.206681 -0.141396 0.502237 255 100 100
-0.031547 0.081571 -0.154648 255 100 100
0.258989 -0.499666 -0.356363 255 100 100
-0.088059 -0.369584 -0.154619 255 100 100
0.309581 0.154645 -0.503660 255 100 100
-0.018432 0.166189 0.388942 255 100 100
0.125229 0.192217 0.261217 255 100 100
-0.013788 0.043404 0.181855 255 100 100
0.162391 -0.263387 0.254036 255 100 100
-0.195957 0.148296 -0.196778 255 100 100
0.185435 -0.205081 -0.039189 255 100 100
-0.394630 -0.165734 -0.155998 255 100 100
0.433258 0.076196 0.020477 255 100 100
0.278001 -0.490133 -0.626368 255 100 100
0.461797 0.226612 0.154368 255 100 100
-0.151586 0.127325 0.229778 255 100 100
-0.348235 -0.320365 -0.200416 255 100 100
0.238812 -0.340304 -0.266493 255 100 100
0.239963 0.041607 -0.209729 255 100 100
-0.037079 0.020173 0.072115 255 100 100
-0.324510 -0.260570 -0.003970 255 100 100
0.031638 -0.139989 0.050380 255 100 100
-0.036633 -0.206553 -0.397612 255 100 100
-0.256753 -0.076560 0.244197 255 100 100
-0.082673 0.272789 -0.304808 255 100 100
0.105378 -0.249021 -0.126859 255 100 100
-0.190574 -0.268949 0.037408 255 100 100
-0.253083 -0.290450 0.353502 255 100 100
0.132316 0.172527 -0.197316 255 100 100
0.150170 0.033172 -0.207129 255 100 100
-0.308223 -0.382758 0.134953 255 100 100
-0.250783 0.042566 -0.200707 255 100 100
-0.070132 0.100227 0.357596 255 100 100
-0.614992 -0.225737 -0.127865 255 100 100
0.317147 0.113887 -0.098488 255 100 100
-0.160773 0.064808 0.076407 255 100 100
-0.043524 0.126267 0.112509 255 100 100
-0.012847 0.138880 0.368067 255 100 100
0.154548 0.263194 -0.262139 255 100 100
0.179710 0.162129 -0.090682 255 100 100
-0.037408 0.029936 -0.034605 255 100 100
-0.177118 -0.015091 -0.411002 255 100 100
0.352982 -0.048444 0.139000 255 100 100
-0.055551 0.042023 -0.339647 255 100 100
0.411027 -0.327211 0.129163 255 100 100
0.058172 0.009232 -0.108477 255 100 100
-0.082941 -0.468095 -0.236256 255 100 100
0.266187 -0.259643 -0.206219 255 100 100
0.227489 -0.499483 0.373576 255 100 100
-0.042496 0.276447 0.080699 255 100 100
-0.270773 -0.272220 0.346156 255 100 100
-0.108544 -0.144589 0.545737 255 100 100
0.379423 0.042819 0.249955 255 100 100
0.366294 0.055894 -0.000694 255 100 100
-0.009124 -0.040121 -0.105673 255 100 100
0.291259 0.419490 -0.118756 255 100 100
0.154383 0.040543 -0.093825 255 100 100
0.131004 0.132290 0.513850 255 100 100
-0.014694 0.488174 -0.177138 255 100 100
0.147052 -0.183039 0.520080 255 100 100
-0.247101 0.031828 0.204267 255 100 100
-0.128430 0.501927 -0.120644 255 100 100
0.071035 -0.100354 0.152600 255 100 100
0.146764 -0.169546 -0.224934 255 100 100
0.485953 -0.432136 0.139542 255 100 100
0.171998 -0.205876 -0.045668 255 100 100
-0.021349 0.271311 0.290902 255 100 100
-0.265216 0.305385 -0.518361 255 100 100
-0.551675 0.116861 0.306944 255 100 100
-0.166005 -0.212971 -0.066603 255 100 100
-0.202796 0.008423 0.244887 255 100 100
-0.474122 0.393120 0.261399 255 100 100
-0.179176 0.121746 0.115759 255 100 100
-0.217151 0.247429 0.170728 255 100 100
-0.066681 -0.177164 -0.076929 255 100 100
-0.198687 0.110830 0.214244 255 100 100
0.384641 0.078382 -0.074676 255 100 100
0.096977 -0.037982 0.466544 255 100 100
-0.177279 -0.027561 0.118569 255 100 100
0.045012 -0.029932 -0.049528 255 100 100
-0.021266 -0.012243 -0.022555 255 100 100
0.093417 0.016558 0.301596 255 100 100
0.036404 0.043449 0.266353 255 100 100
0.027673 -0.051359 -0.019522 255 100 100
0.053078 0.244762 0.369401 255 100 100
-0.058656 -0.023507 -0.104481 255 100 100
0.118294 -0.016443 0.483971 255 100 100
0.268022 0.432121 -0.025227 255 100 100
0.536590 0.079403 -0.281461 255 100 100
-0.017673 -0.504646 -0.034920 255 100 100
-0.706937 0.072079 0.318280 255 100 100
0.186715 -0.071417 -0.029202 255 100 100
-0.063653 0.377726 0.022413 255 100 100
0.217815 -0.178955 -0.271274 255 100 100
0.248129 0.160883 0.480887 255 100 100
0.134649 -0.567848 -0.036040 255 100 100
0.188746 0.382601 -0.048171 255 100 100
0.250273 0.240013 -0.170273 255 100 100
-0.238947 -0.064221 0.108929 255 100 100
0.766337 0.064496 -0.221757 255 100 100
0.157799 0.343737 -0.081435 255 100 100
-0.368711 -0.043694 0.151226 255 100 100
0.077437 0.040510 0.354274 255 100 100
0.084270 0.539839 0.138071 255 100 100
0.021306 -0.044663 0.315406 255 100 100
-0.114293 0.277536 0.497695 255 100 100
-0.277049 -0.400868 0.426792 255 100 100
0.093910 0.272535 0.068672 255 100 100
-0.088709 0.608283 0.072080 255 100 100
-0.378311 -0.287948 -0.062893 255 100 100
0.285078 0.032179 0.028070 255 100 100
-0.043800 -0.243038 0.164990 255 100 100
-0.145213 0.157426 0.483716 255 100 100
0.071562 -0.496354 -0.127571 255 100 100
-0.038735 -0.268448 0.741621 255 100 100
0.278474 -0.058864 0.020205 255 100 100
-0.216947 -0.052548 0.354677 255 100 100
-0.224199 -0.242558 -0.394074 255 100 100
-0.235845 -0.277655 -0.137737 255 100 100
-0.029846 0.190507 0.069981 255 100 100
0.093627 -0.104679 0.247597 255 100 100
0.373994 -0.336349 0.143280 255 100 100
0.215057 0.215386 -0.229336 255 100 100
0.085278 0.190545 -0.259232 255 100 100
-0.106772 0.053380 -0.033438 255 100 100
0.359354 0.201970 -0.144929 255 100 100
-0.019699 0.073916 0.313755 255 100 100
0.000887 -0.254104 0.127484 255 100 100
0.174483 -0.161002 -0.138276 255 100 100
0.037297 0.343650 -0.114547 255 100 100
-0.199213 -0.541983 0.235800 255 100 100
0.127529 -0.306430 -0.145190 255 100 100
0.004991 0.162833 -0.426673 255 100 100
-0.428619 0.451517 -0.106080 255 100 100
-0.224907 -0.097939 0.227462 255 100 100
0.225454 0.559464 0.023973 255 100 100
-0.101621 0.303747 -0.050945 255 100 100
0.118455 -0.269588 0.041024 255 100 100
-0.238074 -0.139264 0.146593 255 100 100
0.010267 0.091569 -0.272257 255 100 100
0.098031 -0.088085 -0.108559 255 100 100
-0.081377 0.406535 -0.445778 255 100 100
0.262922 0.062715 -0.264231 255 100 100
0.077952 -0.503041 0.207709 255 100 100
0.087009 0.081793 0.230821 255 100 100
-0.034143 0.191968 -0.105881 255 100 100
-0.131075 -0.072096 0.095346 255 100 100
-0.136788 -0.043223 0.279714 255 100 100
-0.275674 0.063467 0.166509 255 100 100
-0.243453 0.042113 -0.214806 255 100 100
-0.620808 -0.020175 0.094614 255 100 100
0.075253 -0.141161 0.073038 255 100 100
0.235330 0.080241 -0.215234 255 100 100
-0.006705 -0.273335 -0.023227 255 100 100
0.012811 -0.306889 0.156095 255 100 100
-0.041457 0.131745 0.080852 255 100 100
-0.152395 -0.051112 0.003304 255 100 100
0.368994 0.157620 -0.177177 255 100 100
0.517427 -0.038253 0.201562 255 100 100
0.268710 -0.281936 0.111972 255 100 100
-0.525456 0.058881 0.291011 255 100 100
-0.210014 -0.073694 0.023533 255 100 100
0.126865 0.185466 0.349837 255 100 100
-0.330264 -0.154262 0.006657 255 100 100
-0.406605 -0.087189 -0.120635 255 100 100
-0.228659 -0.008028 -0.095481 255 100 100
-0.286125 -0.183162 0.179221 255 100 100
0.049527 0.040418 -0.019395 255 100 100
-0.034429 -0.026603 -0.112763 255 100 100
0.267540 0.347802 0.051650 255 100 100
-0.259662 -0.438302 0.053248 255 100 100
-0.186895 0.027561 -0.101250 255 100 100
0.434190 0.081386 0.009335 255 100 100
0.085637 0.077727 0.182196 255 100 100
0.407081 -0.113896 0.198344 255 100 100
0.164038 -0.056118 -0.135269 255 100 100
0.055750 0.187609 -0.230805 255 100 100
-0.183511 0.041034 -0.240160 255 100 100
0.151458 -0.077493 0.229434 255 100 100
0.044740 -0.054559 0.327056 255 100 100
-0.386193 -0.076049 0.370477 255 100 100
0.327072 -0.090209 0.253296 255 100 100
0.407352 -0.295655 -0.120174 255 100 100
0.042514 0.040872 0.117928 255 100 100
0.099705 0.473730 -0.099554 255 100 100
0.135851 -0.139396 -0.413058 255 100 100
0.007149 -0.114957 -0.405990 255 100 100
-0.017951 0.084925 -0.452913 255 100 100
0.349037 0.196169 0.151875 255 100 100
0.190604 0.158910 0.214144 255 100 100
-0.255757 0.255210 -0.248994 255 100 100
-0.025327 -0.253286 0.187783 255 100 100
-0.037126 -0.203939 0.031948 255 100 100
0.696569 -0.169458 -0.143998 255 100 100
-0.037991 0.109488 -0.135958 255 100 100
-0.255456 0.137117 -0.102281 255 100 100
0.271558 -0.255463 -0.145474 255 100 100
0.027869 0.244626 -0.297202 255 100 100
0.057033 -0.055393 0.165350 255 100 100
-0.316046 0.428064 0.147160 255 100 100
0.213612 -0.220422 0.077661 255 100 100
-0.025766 -0.315412 -0.242027 255 100 100
-0.129147 0.236735 -0.190608 255 100 100
-0.086689 0.044812 0.331344 255 100 100
-0.365306 0.365548 0.065873 255 100 100
0.105791 0.652222 -0.028040 255 100 100
0.240215 0.539297 -0.194667 255 100 100
0.246952 -0.238727 0.139083 255 100 100
0.220406 0.091134 0.304631 255 100 100
-0.142984 -0.073352 0.040047 255 100 100
0.425894 -0.298827 -0.270954 255 100 100
0.013383 0.033026 0.151852 255 100 100
-0.150102 0.599507 -0.250427 255 100 100
-0.160649 0.236465 0.103051 255 100 100
-0.225217 0.423199 0.157659 255 100 100
0.228707 0.217290 -0.222570 255 100 100
0.339389 0.170742 -0.002666 255 100 100
-0.085464 -0.198901 0.166328 255 100 100
0.000901 0.259351 -0.365616 255 100 100
-0.413187 -0.329561 0.344004 255 100 100
0.086684 -0.242368 0.200093 255 100 100
-0.077004 0.214362 0.041368 255 100 100
-0.095398 0.029958 0.081310 255 100 100
-0.041928 -0.087385 -0.006829 255 100 100
-0.069018 -0.040966 0.143115 255 100 100
0.222831 0.089314 0.248769 255 100 100
-0.011428 -0.039753 0.004151 255 100 100
0.002798 0.123566 -0.412942 255 100 100
0.092925 0.042699 -0.162588 255 100 100
0.190713 0.231589 0.188572 255 100 100
0.231183 0.272633 0.038541 255 100 100
0.118439 -0.284489 0.245467 255 100 100
0.012929 -0.274645 -0.167250 255 100 100
0.080744 -0.193250 -0.578609 255 100 100
-0.544518 0.021458 0.235557 255 100 100
0.371709 0.038821 -0.017403 255 100 100
0.029394 0.331446 0.035213 255 100 100
0.249637 -0.240429 0.273686 255 100 100
-0.346262 -0.161490 0.238022 255 100 100
-0.459613 -0.223055 -0.303574 255 100 100
0.073550 0.663892 -0.072689 255 100 100
0.127219 0.031688 -0.051743 255 100 100
0.079887 0.358178 0.177145 255 100 100
-0.038222 0.379051 -0.422360 255 100 100
0.053419 0.105250 -0.364520 255 100 100
0.179539 -0.057048 -0.090125 255 100 100
-0.132129 0.148231 0.045844 255 100 100
0.234958 0.031779 0.036251 255 100 100
0.131506 0.056810 0.315334 255 100 100
-0.171693 -0.211823 -0.267410 255 100 100
-0.058400 0.237159 -0.234283 255 100 100
0.028449 0.310023 0.221215 255 100 100
0.115545 0.170248 -0.145405 255 100 100
-0.056872 0.132933 0.116685 255 100 100
-0.085437 -0.052122 -0.341389 255 100 100
-0.116303 0.202226 -0.585271 255 100 100
-0.083466 -0.023020 -0.146339 255 100 100
0.022238 -0.045180 -0.573141 255 100 100
0.107241 0.269486 -0.001894 255 100 100
0.037899 0.204449 -0.051919 255 100 100
-0.050639 0.100611 0.148827 255 100 100
0.557070 0.579544 -0.006784 255 100 100
-0.343319 -0.138267 0.236601 255 100 100
-0.093228 -0.172800 -0.220833 255 100 100
0.091883 -0.191216 -0.121076 255 100 100
0.006827 0.296849 0.343262 255 100 100
0.143226 -0.012078 -0.069135 255 100 100
-0.028962 0.273252 -0.006606 255 100 100
0.200614 0.150382 0.162791 255 100 100
-0.104164 -0.119544 -0.430702 255 100 100
-0.088938 -0.051814 0.424337 255 100 100
-0.172731 -0.080423 -0.177648 255 100 100
-0.173552 0.323820 0.078278 255 100 100
-0.382864 -0.149668 0.021223 255 100 100
-0.236671 0.484607 0.266669 255 100 100
0.146117 -0.217425 -0.028222 255 100 100
0.163751 -0.069522 0.409939 255 100 100
-0.150781 -0.026071 0.164225 255 100 100
-0.019383 -0.191474 0.200432 255 100 100
0.045168 0.086092 0.179510 255 100 100
0.189242 0.304691 0.185403 255 100 100
-0.435907 -0.088553 -0.067332 255 100 100
-0.099717 0.056318 0.172862 255 100 100
-0.058410 0.534770 -0.243644 255 100 100
0.101595 0.376306 0.404215 255 100 100
0.203737 -0.287284 -0.161522 255 100 100
-0.061103 -0.220447 0.109001 255 100 100
-0.143120 -0.130708 -0.018316 255 100 100
0.081064 0.160451 0.517943 255 100 100
0.130374 0.108870 -0.093270 255 100 100
0.335113 0.004288 -0.323042 255 100 100
-0.073537 0.024391 0.003672 255 100 100
0.052399 0.095256 0.107989 255 100 100
0.611758 -0.233532 0.133608 255 100 100
-0.431945 0.185114 0.004023 255 100 100
-0.223344 0.465900 -0.033272 255 100 100
-0.074417 -0.255066 -0.026980 255 100 100
-0.173231 -0.189539 -0.135729 255 100 100
-0.157708 0.069055 -0.254158 255 100 100
0.004146 -0.304060 -0.474565 255 100 100
0.057614 0.110386 0.293584 255 100 100
-0.098302 0.035878 -0.005795 255 100 100
-0.243569 0.054487 -0.311851 255 100 100
0.096482 0.137280 0.004522 255 100 100
-0.430716 0.289337 0.107903 255 100 100
0.200301 0.151529 -0.019113 255 100 100
0.186275 -0.406182 -0.345943 255 100 100
0.093720 0.495735 0.181612 255 100 100
0.078914 0.134909 -0.252103 255 100 100
0.035598 0.047708 0.048638 255 100 100
