ply
format ascii 1.0
element vertex 1181
property float x
property float y
property float z
property uchar red
property uchar green
property uchar blue
end_header
-0.048300 -0.117860 -0.463445 100 100 255
-0.135840 0.143037 -0.203758 100 100 255
-0.117494 0.169387 -0.174554 100 100 255
0.138274 -0.191137 0.080734 100 100 255
0.014768 -0.149443 0.056075 100 100 255
-0.211634 0.099046 0.129809 100 100 255
0.150880 -0.061107 0.109857 100 100 255
-0.089577 0.076167 -0.182746 100 100 255
-0.148913 0.156842 -0.147800 100 100 255
-0.163672 0.023974 -0.042332 100 100 255
-0.163894 0.169687 -0.437040 100 100 255
0.406698 -0.266397 0.172641 100 100 255
-0.031162 0.169919 -0.019273 100 100 255
0.002192 0.067587 -0.048532 100 100 255
0.079528 -0.200911 0.001296 100 100 255
0.000849 0.101326 0.013594 100 100 255
0.018336 -0.415252 -0.096117 100 100 255
-0.086194 -0.127558 0.037328 100 100 255
0.084711 -0.225135 -0.119366 100 100 255
-0.009958 -0.213036 -0.216583 100 100 255
-0.132828 -0.208865 0.008199 100 100 255
-0.275342 -0.195382 -0.100742 100 100 255
-0.077416 0.231241 -0.076200 100 100 255
-0.206364 0.022254 0.659940 100 100 255
0.084688 -0.196496 -0.400914 100 100 255
-0.022014 -0.192398 0.217866 100 100 255
0.046622 -0.010179 -0.208061 100 100 255
-0.028255 0.147415 -0.249434 100 100 255
-0.129061 -0.001593 0.178007 100 100 255
-0.172426 -0.140026 -0.188625 100 100 255
-0.119102 -0.095578 -0.249729 100 100 255
0.005442 -0.228621 0.082756 100 100 255
0.108358 0.194649 -0.008919 100 100 255
0.102445 0.130632 -0.020064 100 100 255
0.132905 -0.117482 0.180767 100 100 255
-0.311984 0.214144 -0.192447 100 100 255
-0.031077 -0.348611 0.217468 100 100 255
0.101353 0.175000 -0.022085 100 100 255
-0.153976 0.157056 0.127768 100 100 255
0.413831 0.162292 -0.087660 100 100 255
-0.077529 -0.171766 -0.314645 100 100 255
-0.037813 0.059553 -0.042015 100 100 255
0.059101 -0.037647 0.244188 100 100 255
0.118013 0.036985 0.023936 100 100 255
0.246231 0.086903 0.272511 100 100 255
-0.005919 0.167831 -0.570294 100 100 255
0.140727 0.065116 0.219488 100 100 255
0.116428 0.248396 -0.048908 100 100 255
0.012611 -0.046256 -0.090979 100 100 255
0.039607 0.545837 -0.097309 100 100 255
0.091587 -0.077158 0.365210 100 100 255
-0.113548 0.026494 0.293676 100 100 255
0.194040 0.416243 0.089605 100 100 255
0.147441 0.071691 -0.037638 100 100 255
-0.043748 0.470442 0.082143 100 100 255
-0.099129 -0.054011 0.188568 100 100 255
-0.191693 0.081687 -0.166256 100 100 255
-0.131967 0.018825 -0.350762 100 100 255
-0.063586 0.096089 -0.263980 100 100 255
0.055712 0.165858 0.009722 100 100 255
-0.090403 -0.222556 0.019018 100 100 255
0.015913 -0.062041 0.018626 100 100 255
0.287985 0.112843 0.096547 100 100 255
0.179657 -0.367713 0.414733 100 100 255
-0.234784 0.061890 -0.113571 100 100 255
-0.119750 -0.166933 0.165615 100 100 255
0.382908 -0.106389 -0.035915 100 100 255
-0.350242 -0.395048 -0.141345 100 100 255
-0.231819 0.095866 -0.164893 100 100 255
-0.110594 0.143989 -0.034954 100 100 255
0.283793 -0.218191 0.044977 100 100 255
-0.252055 0.004796 0.202062 100 100 255
-0.521916 -0.343630 -0.150495 100 100 255
0.163046 -0.442140 -0.154385 100 100 255
0.125743 0.162477 0.003262 100 100 255
-0.096765 -0.185199 -0.279707 100 100 255
-0.097879 -0.140849 -0.196044 100 100 255
0.685904 0.021284 -0.034335 100 100 255
0.008499 0.167206 -0.037854 100 100 255
0.094503 0.036312 -0.069741 100 100 255
0.300606 -0.115492 -0.027700 100 100 255
-0.043865 0.255536 -0.040535 100 100 255
0.035291 -0.005620 0.194946 100 100 255
0.015244 -0.146514 0.443946 100 100 255
0.146011 -0.049603 -0.155733 100 100 255
0.128222 0.042910 0.042565 100 100 255
0.073084 0.631098 0.012079 100 100 255
-0.018350 0.120027 0.060283 100 100 255
0.408030 -0.118452 -0.204999 100 100 255
0.124223 0.050368 -0.066073 100 100 255
0.036101 -0.374338 0.138680 100 100 255
0.105286 0.123068 -0.012230 100 100 255
-0.171808 -0.052355 -0.256884 100 100 255
-0.353724 0.148392 -0.058385 100 100 255
-0.109675 0.501019 0.061452 100 100 255
0.310333 0.142983 -0.382448 100 100 255
0.344526 0.238697 0.016063 100 100 255
0.158704 0.002809 0.316621 100 100 255
-0.279128 -0.194039 -0.245711 100 100 255
-0.157584 0.131873 -0.127565 100 100 255
-0.038600 -0.170676 0.160199 100 100 255
-0.030199 0.054601 0.075443 100 100 255
0.178227 -0.089979 -0.117087 100 100 255
0.323461 -0.183346 -0.274808 100 100 255
0.298299 0.239990 -0.056774 100 100 255
0.122438 -0.056757 0.123360 100 100 255
0.196849 0.174063 0.420400 100 100 255
-0.300603 0.170555 0.009568 100 100 255
0.022873 -0.183591 -0.108575 100 100 255
0.385106 0.066817 0.079900 100 100 255
-0.065368 -0.264360 -0.088871 100 100 255
0.064038 0.003100 0.202719 100 100 255
0.229315 0.066602 -0.218987 100 100 255
0.011359 0.114104 -0.035620 100 100 255
0.215136 -0.036530 -0.001377 100 100 255
-0.040699 0.276887 -0.139532 100 100 255
0.142625 -0.268316 -0.116225 100 100 255
-0.127992 -0.091401 0.389257 100 100 255
0.177857 -0.017887 -0.017078 100 100 255
0.267762 -0.087123 -0.156001 100 100 255
0.031206 0.219278 0.143766 100 100 255
0.050869 -0.116940 0.086043 100 100 255
0.110606 0.074778 -0.047610 100 100 255
-0.249667 -0.129403 -0.040039 100 100 255
-0.120244 0.111008 -0.084321 100 100 255
0.047054 0.226110 0.084293 100 100 255
-0.046130 -0.209119 0.071145 100 100 255
0.159751 0.123530 -0.176941 100 100 255
-0.210248 0.184276 0.105957 100 100 255
-0.169973 -0.064227 0.281070 100 100 255
-0.186096 -0.273005 -0.053311 100 100 255
-0.199556 -0.110247 0.052159 100 100 255
-0.188757 0.237128 0.430757 100 100 255
-0.095199 -0.159489 -0.070127 100 100 255
0.127834 0.429988 -0.117910 100 100 255
0.196535 0.145984 -0.020624 100 100 255
0.068335 -0.262188 0.029837 100 100 255
0.162760 0.122040 0.071873 100 100 255
0.109598 0.088088 0.012915 100 100 255
0.163730 0.039122 -0.245724 100 100 255
0.196177 0.263749 -0.150233 100 100 255
0.080381 0.028680 0.075457 100 100 255
0.031610 0.265405 0.067615 100 100 255
0.139862 -0.113314 0.159370 100 100 255
0.154518 -0.005305 0.235680 100 100 255
-0.312137 -0.129490 0.057158 100 100 255
-0.087120 0.061461 0.457579 100 100 255
-0.197895 -0.155175 -0.066642 100 100 255
-0.246946 -0.080771 0.108046 100 100 255
-0.272290 -0.080892 0.093004 100 100 255
0.052825 -0.304338 0.086991 100 100 255
0.095117 -0.031227 -0.155617 100 100 255
0.041304 0.324869 -0.055926 100 100 255
0.193467 -0.039955 -0.295714 100 100 255
-0.054192 -0.006178 -0.096383 100 100 255
0.048937 -0.186519 0.053610 100 100 255
0.098615 -0.073564 0.114072 100 100 255
-0.217989 -0.080580 0.391855 100 100 255
-0.159764 -0.040902 0.328834 100 100 255
0.040051 0.026052 -0.235414 100 100 255
0.006054 -0.011953 -0.124476 100 100 255
0.027996 0.192023 0.069458 100 100 255
0.010635 -0.071037 -0.146127 100 100 255
-0.414182 0.023482 -0.129703 100 100 255
0.149051 -0.198145 0.303989 100 100 255
-0.015641 -0.345255 -0.052751 100 100 255
0.422185 0.158523 0.115426 100 100 255
-0.009471 -0.114811 0.237194 100 100 255
-0.075176 -0.231310 0.364800 100 100 255
-0.426529 0.275101 0.238776 100 100 255
0.226408 -0.261018 -0.044980 100 100 255
0.120931 -0.359305 0.184235 100 100 255
0.388916 -0.148235 -0.096859 100 100 255
-0.070577 0.055474 -0.209994 100 100 255
-0.236096 0.112074 -0.111847 100 100 255
0.064247 0.149860 0.054455 100 100 255
-0.086815 -0.052645 0.112523 100 100 255
-0.037665 -0.117314 0.092148 100 100 255
0.209611 0.304886 0.257972 100 100 255
0.268687 -0.114256 0.340096 100 100 255
-0.387891 0.171569 0.180395 100 100 255
-0.174753 -0.114416 -0.068368 100 100 255
0.090181 0.397793 0.160032 100 100 255
-0.277161 -0.247670 0.025638 100 100 255
0.067412 0.125847 0.212097 100 100 255
-0.093643 -0.082975 0.020068 100 100 255
-0.093418 0.205015 -0.118794 100 100 255
-0.226551 -0.104094 -0.446168 100 100 255
-0.136279 0.283952 0.227673 100 100 255
-0.043513 0.017346 0.149172 100 100 255
-0.203196 -0.149747 -0.087528 100 100 255
0.041947 0.066333 -0.311111 100 100 255
-0.112821 0.002951 -0.021203 100 100 255
-0.000592 0.136223 -0.287239 100 100 255
-0.146752 -0.078428 -0.208414 100 100 255
-0.075439 0.087405 -0.372326 100 100 255
0.254838 -0.095474 0.033895 100 100 255
-0.110312 0.002298 0.209835 100 100 255
0.142424 -0.224405 -0.260787 100 100 255
-0.095972 -0.084685 0.148248 100 100 255
0.017631 -0.085005 -0.002022 100 100 255
0.213741 0.096985 0.494723 100 100 255
-0.050813 -0.001183 -0.083592 100 100 255
-0.187115 0.243105 0.184042 100 100 255
-0.102282 -0.285904 -0.250885 100 100 255
-0.108682 0.038964 0.037222 100 100 255
-0.160507 -0.319903 0.129497 100 100 255
-0.157928 -0.160073 0.202691 100 100 255
0.013255 -0.255009 -0.059453 100 100 255
-0.025021 0.269847 -0.200206 100 100 255
-0.130848 0.014155 -0.170860 100 100 255
-0.020416 0.064181 -0.312844 100 100 255
-0.009735 0.343248 0.069540 100 100 255
-0.194434 -0.007050 -0.109931 100 100 255
-0.312109 0.086926 0.012036 100 100 255
0.154827 0.087514 0.106264 100 100 255
0.074724 -0.080997 0.237428 100 100 255
0.183019 0.095386 -0.382110 100 100 255
-0.284410 -0.264383 0.014355 100 100 255
0.157825 -0.248581 0.082134 100 100 255
-0.082722 -0.278414 -0.359327 100 100 255
-0.117709 -0.210477 -0.104130 100 100 255
0.126780 -0.062935 0.097800 100 100 255
-0.017006 0.084352 0.025245 100 100 255
-0.103706 -0.038197 0.035575 100 100 255
0.148641 -0.248652 -0.329205 100 100 255
0.045341 0.109012 -0.006854 100 100 255
0.186120 0.338559 0.131552 100 100 255
-0.131413 0.271817 -0.359562 100 100 255
-0.118632 -0.095786 -0.097737 100 100 255
0.239915 -0.034887 0.118834 100 100 255
-0.090334 -0.043588 -0.167395 100 100 255
-0.121693 -0.303827 0.357463 100 100 255
0.113834 -0.189400 -0.353407 100 100 255
-0.020112 0.098784 0.330758 100 100 255
-0.053455 -0.137779 0.102782 100 100 255
0.095586 -0.063806 0.067175 100 100 255
-0.063889 0.237714 0.247884 100 100 255
-0.025923 -0.180899 -0.200119 100 100 255
-0.095580 0.106664 0.327974 100 100 255
-0.208900 -0.099375 0.130641 100 100 255
0.000179 -0.117075 0.302305 100 100 255
0.312815 -0.056176 0.435044 100 100 255
-0.110253 -0.072985 -0.139666 100 100 255
-0.004139 0.125359 -0.049652 100 100 255
0.030898 0.306096 -0.316451 100 100 255
0.039525 0.179524 0.279170 100 100 255
-0.302240 -0.221605 0.229502 100 100 255
-0.089622 0.010788 0.021592 100 100 255
0.299479 0.069208 0.348850 100 100 255
-0.035078 0.030518 0.028464 100 100 255
0.077770 0.135548 0.126368 100 100 255
-0.200115 -0.081150 0.259923 100 100 255
-0.038628 -0.168729 -0.217464 100 100 255
0.093721 -0.199208 -0.016065 100 100 255
0.199075 -0.302646 0.107798 100 100 255
-0.257705 -0.062830 -0.096479 100 100 255
-0.120298 0.305899 0.090555 100 100 255
0.424297 0.075226 -0.146378 100 100 255
0.077381 0.028909 -0.057351 100 100 255
-0.104101 0.106506 -0.459490 100 100 255
-0.116198 -0.061568 0.181997 100 100 255
-0.087539 0.166483 0.218961 100 100 255
-0.020545 -0.012834 -0.224994 100 100 255
-0.108202 -0.156476 0.115339 100 100 255
0.318409 -0.388189 -0.015996 100 100 255
-0.000667 -0.231083 0.067822 100 100 255
-0.046365 0.202417 -0.036223 100 100 255
-0.143373 -0.075469 0.223571 100 100 255
0.082233 -0.195859 0.284402 100 100 255
0.296906 -0.076259 0.003844 100 100 255
0.123417 0.388382 -0.034956 100 100 255
0.103757 -0.474877 -0.347913 100 100 255
-0.005824 -0.240832 0.106497 100 100 255
-0.004203 -0.224279 0.308754 100 100 255
0.076648 -0.184238 -0.039660 100 100 255
0.247457 0.001274 -0.493347 100 100 255
-0.049591 -0.016793 0.091372 100 100 255
0.013052 0.026491 -0.192064 100 100 255
-0.190494 0.089249 -0.214838 100 100 255
-0.350609 0.053555 -0.008824 100 100 255
0.025560 -0.078299 0.048486 100 100 255
-0.291305 -0.182115 0.105018 100 100 255
0.305230 -0.220241 0.140318 100 100 255
0.092174 -0.110825 0.011208 100 100 255
0.159249 0.010856 -0.137629 100 100 255
0.090370 -0.181202 -0.106796 100 100 255
-0.107412 -0.107915 -0.228886 100 100 255
-0.020286 0.037744 -0.057976 100 100 255
-0.065993 -0.110383 0.249632 100 100 255
0.158697 -0.299906 -0.200458 100 100 255
0.122168 -0.034196 -0.204481 100 100 255
-0.130309 0.203952 0.144320 100 100 255
0.163980 -0.273086 0.317544 100 100 255
0.060221 0.109270 0.009961 100 100 255
-0.138592 -0.093767 0.067918 100 100 255
0.339965 0.171261 -0.141413 100 100 255
-0.103557 0.114843 -0.124416 100 100 255
0.213595 0.146575 -0.215056 100 100 255
0.126865 -0.023767 -0.210538 100 100 255
0.130349 0.336839 0.111971 100 100 255
0.062332 0.262996 0.161286 100 100 255
0.199013 0.387875 -0.002302 100 100 255
0.263272 -0.176467 -0.057142 100 100 255
0.192748 0.061296 0.257116 100 100 255
-0.220166 -0.196145 0.034995 100 100 255
-0.268897 0.112218 0.096607 100 100 255
-0.222772 -0.182849 -0.444626 100 100 255
0.158943 -0.111181 -0.032186 100 100 255
-0.109678 0.213241 -0.067033 100 100 255
0.116538 0.118976 0.112191 100 100 255
0.136444 0.047735 -0.068512 100 100 255
-0.271013 0.371933 -0.069421 100 100 255
0.087168 0.111120 -0.261191 100 100 255
-0.091362 0.023982 0.050529 100 100 255
-0.076223 -0.006083 -0.311207 100 100 255
0.181432 -0.112438 0.113935 100 100 255
-0.104095 -0.266696 0.019067 100 100 255
0.269346 -0.359006 0.138274 100 100 255
0.021286 -0.051676 0.000822 100 100 255
0.407801 -0.254347 0.253675 100 100 255
0.146998 0.296432 -0.014201 100 100 255
-0.077437 -0.070670 -0.362285 100 100 255
-0.068066 -0.078994 -0.045329 100 100 255
0.472180 -0.175357 0.166369 100 100 255
-0.096481 -0.098857 -0.190706 100 100 255
-0.076364 0.027246 0.002998 100 100 255
0.048157 -0.207191 0.146891 100 100 255
-0.199405 0.086755 0.283048 100 100 255
0.013399 -0.193144 0.060032 100 100 255
0.068184 -0.043404 0.346508 100 100 255
-0.098593 0.435909 -0.137714 100 100 255
-0.150600 0.311225 0.102473 100 100 255
-0.134145 -0.032600 0.189522 100 100 255
-0.082638 0.014837 0.064600 100 100 255
-0.008817 -0.244820 -0.143977 100 100 255
-0.239179 0.208119 0.157806 100 100 255
0.136469 -0.105881 -0.076179 100 100 255
0.044589 -0.095327 0.233211 100 100 255
-0.107706 -0.349313 0.039715 100 100 255
0.095347 0.452621 -0.107624 100 100 255
0.099483 0.034862 -0.085415 100 100 255
0.261250 -0.221141 -0.030810 100 100 255
-0.005656 -0.137673 0.351524 100 100 255
0.181011 -0.060808 -0.030395 100 100 255
0.184948 -0.264756 -0.401442 100 100 255
0.045658 0.269419 -0.094035 100 100 255
0.066319 0.152162 0.325883 100 100 255
-0.175637 0.105644 0.075726 100 100 255
-0.036615 -0.031917 -0.209375 100 100 255
0.359204 0.104835 0.135302 100 100 255
0.068788 -0.250030 -0.100254 100 100 255
0.273371 -0.085584 0.018721 100 100 255
0.284657 0.002131 0.278658 100 100 255
0.079656 -0.252864 0.060309 100 100 255
-0.160938 0.159243 -0.033498 100 100 255
-0.123118 0.122368 -0.264823 100 100 255
-0.058718 -0.033650 0.236498 100 100 255
0.256690 -0.005567 0.111917 100 100 255
-0.052644 -0.265333 -0.237776 100 100 255
0.269996 -0.057166 0.175863 100 100 255
-0.105134 0.041214 0.027879 100 100 255
0.197909 -0.071849 0.081758 100 100 255
0.057172 0.090983 -0.014022 100 100 255
-0.105408 0.195963 -0.037857 100 100 255
0.121048 -0.402555 0.050773 100 100 255
0.428140 0.163745 -0.159428 100 100 255
-0.148228 -0.046927 0.007462 100 100 255
-0.126418 0.022319 0.175526 100 100 255
-0.008159 0.209976 -0.085969 100 100 255
0.050667 0.011079 0.088346 100 100 255
0.055071 -0.163016 -0.058608 100 100 255
0.190167 -0.420284 -0.296696 100 100 255
-0.065411 0.094500 0.356157 100 100 255
-0.152486 0.462115 0.342776 100 100 255
0.162375 0.061871 -0.263971 100 100 255
0.174594 0.132522 -0.241568 100 100 255
-0.134170 -0.022592 -0.099982 100 100 255
-0.032112 0.143418 0.094912 100 100 255
0.188960 -0.232520 0.096606 100 100 255
0.238043 -0.037296 -0.083801 100 100 255
0.119246 -0.102707 -0.037160 100 100 255
0.060736 -0.108826 0.135177 100 100 255
-0.452234 -0.073775 0.111516 100 100 255
-0.128014 0.143249 0.101073 100 100 255
0.145528 -0.104176 0.040072 100 100 255
0.272626 0.033985 0.271639 100 100 255
0.192482 -0.226212 -0.038957 100 100 255
-0.072959 -0.198816 0.047264 100 100 255
0.095383 -0.142732 -0.012047 100 100 255
0.064647 -0.009441 0.015831 100 100 255
0.413987 0.098618 -0.459463 100 100 255
-0.090584 0.013828 0.256809 100 100 255
0.003928 0.233765 0.157656 100 100 255
0.139232 0.102256 -0.005342 100 100 255
0.220129 0.211764 -0.029207 100 100 255
-0.292931 -0.029250 0.034031 100 100 255
0.036709 -0.256754 -0.040140 100 100 255
-0.046103 0.121282 -0.392970 100 100 255
0.192449 -0.159428 0.153391 100 100 255
-0.015523 0.232409 -0.064356 100 100 255
0.105603 -0.309742 -0.176562 100 100 255
0.263795 -0.142040 -0.028511 100 100 255
-0.132916 0.196993 0.152836 100 100 255
-0.086708 -0.146957 -0.348551 100 100 255
0.045145 -0.004641 -0.007809 100 100 255
0.066441 -0.124452 0.081786 100 100 255
-0.336336 -0.057546 0.091670 100 100 255
0.353536 -0.085311 0.089847 100 100 255
0.256135 -0.224538 0.139691 100 100 255
-0.418965 -0.007948 -0.254835 100 100 255
0.123407 0.072561 0.076014 100 100 255
-0.152639 -0.465102 0.159650 100 100 255
-0.087450 -0.339397 0.237104 100 100 255
-0.172140 0.038693 0.023168 100 100 255
-0.045215 -0.206339 -0.086830 100 100 255
0.223547 0.130632 0.233671 100 100 255
-0.196450 0.005196 -0.222009 100 100 255
-0.055421 0.078271 -0.005340 100 100 255
0.136234 0.128202 -0.329762 100 100 255
0.097677 0.079901 -0.074545 100 100 255
-0.273935 -0.073213 0.002310 100 100 255
-0.468088 0.307898 -0.075578 100 100 255
-0.002625 -0.325530 -0.126997 100 100 255
0.088855 -0.366054 -0.009125 100 100 255
-0.119860 -0.194132 0.401667 100 100 255
-0.177741 0.134426 -0.260721 100 100 255
0.042908 -0.084385 0.057515 100 100 255
0.108307 0.299709 -0.310238 100 100 255
0.293228 0.157686 0.064877 100 100 255
-0.297424 -0.126062 -0.232293 100 100 255
-0.276920 -0.019127 -0.063189 100 100 255
-0.030961 0.170665 0.010841 100 100 255
0.000319 0.132291 0.010616 100 100 255
0.068968 0.028849 -0.012235 100 100 255
0.167673 0.099956 -0.084883 100 100 255
-0.160486 0.158217 0.416488 100 100 255
-0.505586 -0.274628 -0.121895 100 100 255
0.291554 -0.141040 0.007548 100 100 255
-0.310193 -0.462502 0.238833 100 100 255
0.123354 0.191090 0.359571 100 100 255
0.135743 -0.025201 -0.070533 100 100 255
0.447259 -0.140460 -0.333605 100 100 255
0.212588 -0.112877 0.107364 100 100 255
0.329826 0.031425 -0.258528 100 100 255
-0.055278 -0.243954 0.184663 100 100 255
-0.050458 -0.014586 0.276265 100 100 255
-0.146633 -0.008067 0.109296 100 100 255
0.107309 0.126031 -0.123440 100 100 255
-0.046760 0.031916 -0.276890 100 100 255
0.086003 0.386127 0.018047 100 100 255
-0.163465 -0.210618 -0.456039 100 100 255
-0.228258 0.055684 0.306201 100 100 255
-0.035824 0.015867 -0.107301 100 100 255
0.078840 -0.325097 -0.057356 100 100 255
0.207762 0.201368 0.029723 100 100 255
0.108902 0.102948 -0.012522 100 100 255
0.084073 0.217492 -0.065550 100 100 255
-0.023004 0.304162 0.081770 100 100 255
0.013284 0.100410 0.092352 100 100 255
-0.142187 0.203674 0.206445 100 100 255
-0.066916 0.137281 -0.083712 100 100 255
-0.131414 0.373330 0.301524 100 100 255
-0.044721 0.142972 0.004561 100 100 255
0.075210 0.050805 -0.166720 100 100 255
0.125764 -0.001145 0.305456 100 100 255
-0.046879 -0.181374 -0.213215 100 100 255
-0.196661 0.111171 -0.235653 100 100 255
-0.088293 -0.106366 0.173920 100 100 255
-0.185499 0.088800 -0.059802 100 100 255
0.147653 0.292198 -0.043870 100 100 255
0.187393 0.093520 -0.150509 100 100 255
0.369461 -0.019270 0.497327 100 100 255
0.401422 0.335622 -0.170534 100 100 255
-0.024687 -0.125581 0.393253 100 100 255
0.028804 -0.007104 0.173374 100 100 255
0.392271 0.333172 -0.053088 100 100 255
0.019830 0.304684 -0.019363 100 100 255
-0.052149 -0.305803 0.317463 100 100 255
0.159551 -0.458769 0.297373 100 100 255
0.118713 0.335689 -0.262019 100 100 255
-0.111697 0.383102 0.105451 100 100 255
-0.386377 -0.378485 -0.294707 100 100 255
-0.084607 -0.124424 -0.214396 100 100 255
-0.303166 0.111939 0.116479 100 100 255
-0.086564 0.369922 0.204327 100 100 255
0.114587 -0.316285 0.020112 100 100 255
0.583939 0.010789 0.284091 100 100 255
0.067530 0.034929 -0.090506 100 100 255
-0.004164 0.145316 -0.182137 100 100 255
-0.291663 0.016480 -0.088890 100 100 255
0.092546 0.255421 0.341823 100 100 255
0.255547 -0.105745 -0.023438 100 100 255
-0.016442 0.238651 0.012664 100 100 255
-0.183241 -0.277210 0.220449 100 100 255
-0.553134 -0.234141 0.061731 100 100 255
-0.149098 0.070393 -0.016074 100 100 255
0.012340 0.259440 0.008560 100 100 255
-0.095548 -0.168232 0.271269 100 100 255
-0.112947 -0.431387 -0.051319 100 100 255
0.088942 -0.131196 0.099056 100 100 255
0.192287 -0.033368 -0.191225 100 100 255
0.113907 0.004435 -0.193396 100 100 255
0.010856 0.062205 0.023165 100 100 255
0.121248 -0.276931 0.226259 100 100 255
0.020231 -0.140359 0.149232 100 100 255
-0.018039 -0.299793 -0.213009 100 100 255
0.133579 -0.064429 -0.296344 100 100 255
0.034281 0.152714 -0.322690 100 100 255
0.109995 0.191938 -0.041836 100 100 255
-0.251635 -0.096487 0.102943 100 100 255
-0.107930 0.458604 0.263563 100 100 255
0.005693 0.204522 -0.290570 100 100 255
-0.048838 0.042492 -0.330034 100 100 255
-0.118498 -0.011655 -0.097129 100 100 255
0.103665 0.111783 -0.198303 100 100 255
-0.124227 -0.125490 -0.152907 100 100 255
-0.188196 0.070441 0.029473 100 100 255
-0.041082 0.154595 -0.177548 100 100 255
0.043994 0.012004 -0.252433 100 100 255
0.110295 -0.161001 0.257850 100 100 255
0.251542 0.115137 0.049819 100 100 255
0.055899 0.051158 0.126705 100 100 255
-0.011782 -0.029782 -0.198411 100 100 255
-0.187245 -0.094132 -0.062234 100 100 255
-0.037193 -0.279315 -0.019776 100 100 255
-0.053233 0.068952 -0.008747 100 100 255
0.050689 0.087485 -0.105033 100 100 255
0.120422 0.222949 0.072228 100 100 255
-0.022460 -0.383573 -0.147502 100 100 255
-0.103141 -0.232501 -0.113426 100 100 255
-0.052881 -0.028489 -0.188558 100 100 255
-0.335308 -0.341212 0.307047 100 100 255
0.167459 0.281478 0.302815 100 100 255
-0.000837 -0.142653 -0.039170 100 100 255
-0.268280 -0.316448 -0.021102 100 100 255
0.333350 0.077935 0.070682 100 100 255
0.008808 0.241042 0.457960 100 100 255
-0.044999 -0.130704 -0.031641 100 100 255
-0.108125 -0.229578 0.051892 100 100 255
0.061182 -0.041549 0.072143 100 100 255
0.214932 0.429980 -0.157675 100 100 255
-0.064511 -0.158402 -0.024353 100 100 255
-0.093777 -0.210838 -0.117621 100 100 255
-0.042108 0.145902 -0.167905 100 100 255
0.133220 0.142696 0.055204 100 100 255
-0.278171 0.114570 -0.316662 100 100 255
-0.005786 -0.396762 -0.175358 100 100 255
0.035846 -0.186324 -0.014117 100 100 255
0.108195 -0.078334 -0.207452 100 100 255
0.125241 -0.050740 0.342384 100 100 255
0.015927 0.222890 0.035390 100 100 255
-0.179883 -0.123481 0.232137 100 100 255
-0.424903 -0.167627 -0.062312 100 100 255
0.125341 -0.187687 -0.203147 100 100 255
0.060340 0.174499 0.011911 100 100 255
-0.006047 -0.091713 0.024156 100 100 255
-0.199102 -0.348806 -0.164617 100 100 255
0.001067 0.211767 0.260355 100 100 255
-0.077191 0.155720 -0.143571 100 100 255
-0.244517 -0.073992 0.114391 100 100 255
0.255429 -0.209685 -0.313600 100 100 255
0.016459 0.096893 -0.304503 100 100 255
-0.203237 0.120542 0.184355 100 100 255
-0.559931 -0.301613 0.045842 100 100 255
-0.248665 0.058049 -0.419419 100 100 255
0.323764 0.107850 0.445552 100 100 255
-0.440887 0.190557 0.050810 100 100 255
0.408288 -0.094630 0.020183 100 100 255
-0.234798 -0.269809 -0.081555 100 100 255
-0.243469 -0.007446 -0.096498 100 100 255
0.016877 0.033203 0.143755 100 100 255
-0.072662 -0.144368 0.199643 100 100 255
-0.252880 0.236284 0.074269 100 100 255
-0.126042 -0.065763 -0.079781 100 100 255
-0.070453 0.133998 -0.392357 100 100 255
-0.384405 0.141472 -0.305501 100 100 255
0.118567 -0.007461 -0.282344 100 100 255
-0.147417 0.193346 -0.275652 100 100 255
0.179977 -0.289853 0.318755 100 100 255
0.005827 0.237192 -0.037111 100 100 255
0.286478 0.203501 0.206696 100 100 255
0.134296 -0.235248 -0.039641 100 100 255
0.038296 -0.023246 -0.130472 100 100 255
-0.428252 -0.008384 0.099032 100 100 255
-0.143286 0.274391 -0.172976 100 100 255
0.022775 0.374876 0.256952 100 100 255
-0.066375 -0.375675 0.165607 100 100 255
-0.055179 0.299168 0.071100 100 100 255
0.105491 -0.406158 0.241543 100 100 255
-0.262350 -0.027914 -0.105692 100 100 255
-0.019337 0.095151 -0.142508 100 100 255
0.134301 -0.033603 0.122118 100 100 255
0.050414 -0.260702 -0.081696 100 100 255
0.193470 -0.065612 -0.131369 100 100 255
-0.093915 0.057037 0.386885 100 100 255
0.174781 0.239016 0.181844 100 100 255
-0.202315 -0.216296 0.108332 100 100 255
-0.023362 0.089006 0.270869 100 100 255
0.205001 -0.080726 -0.219049 100 100 255
-0.047679 -0.061347 -0.100674 100 100 255
-0.033454 -0.053829 -0.028720 100 100 255
-0.103626 -0.135656 0.097149 100 100 255
0.042235 -0.173444 0.111680 100 100 255
0.004130 -0.434700 0.373476 100 100 255
-0.318518 0.194408 -0.408456 100 100 255
-0.251084 0.367704 0.311581 100 100 255
0.208593 0.076195 0.220060 100 100 255
0.338335 -0.337510 -0.195389 100 100 255
0.410657 0.193737 0.112745 100 100 255
0.139940 -0.503964 0.038154 100 100 255
0.134994 0.140320 0.334591 100 100 255
0.003755 0.036273 -0.022412 100 100 255
-0.055916 0.204983 0.110572 100 100 255
0.298326 -0.357096 0.148762 100 100 255
0.007959 -0.092775 -0.199051 100 100 255
0.121885 0.079697 0.059311 100 100 255
-0.387859 0.196970 -0.079063 100 100 255
0.180720 0.352158 -0.050524 100 100 255
0.139734 0.198846 -0.055725 100 100 255
0.068127 -0.217192 0.069321 100 100 255
-0.488014 0.090714 0.093823 100 100 255
0.188068 0.097001 0.246519 100 100 255
0.159701 -0.067528 0.112990 100 100 255
-0.232022 0.021775 -0.153944 100 100 255
0.056071 0.161436 0.138655 100 100 255
0.104135 0.067966 -0.015943 100 100 255
0.142331 0.024644 0.153293 100 100 255
-0.099342 -0.017911 0.084823 100 100 255
-0.038223 0.230386 0.453149 100 100 255
-0.008861 0.231412 0.311460 100 100 255
-0.326967 0.047746 -0.129476 100 100 255
-0.040370 -0.105457 -0.116235 100 100 255
-0.034395 -0.167955 0.159181 100 100 255
0.131594 -0.080576 0.026047 100 100 255
0.073099 -0.166473 0.403561 100 100 255
-0.295676 0.065756 -0.132700 100 100 255
-0.291981 -0.271395 -0.086467 100 100 255
0.113364 0.340799 0.135174 100 100 255
-0.228010 -0.251713 -0.036278 100 100 255
0.099733 -0.455629 0.133145 100 100 255
0.293755 -0.050758 0.001690 100 100 255
-0.276520 -0.114854 0.042582 100 100 255
-0.322174 0.234584 -0.209532 100 100 255
-0.059156 0.070786 0.216176 100 100 255
0.282258 0.163471 -0.173132 100 100 255
0.444377 -0.020640 0.341537 100 100 255
-0.302760 -0.488239 -0.017848 100 100 255
0.081408 0.066320 -0.121468 100 100 255
-0.199138 -0.257617 -0.118766 100 100 255
0.128172 0.035132 0.165051 100 100 255
-0.291935 0.192928 -0.261906 100 100 255
-0.033933 -0.039637 0.222869 100 100 255
0.202780 -0.049059 0.209663 100 100 255
0.299275 0.116060 -0.232865 100 100 255
0.206171 -0.192491 -0.163080 100 100 255
-0.172133 0.111925 0.020808 100 100 255
-0.040797 0.140947 -0.185170 100 100 255
0.357318 0.024896 -0.315182 100 100 255
0.158403 0.094103 0.183261 100 100 255
-0.023916 0.054531 -0.221665 100 100 255
0.040476 0.226602 -0.170179 100 100 255
0.054980 0.295016 -0.028492 100 100 255
-0.291713 -0.222466 0.098660 100 100 255
0.185308 0.030419 -0.019123 100 100 255
0.034799 0.264063 -0.096264 100 100 255
-0.065808 0.061350 -0.166449 100 100 255
0.056905 0.047272 0.093473 100 100 255
0.318058 -0.180330 0.128533 100 100 255
0.128254 0.287295 0.089224 100 100 255
-0.034606 -0.043655 0.177032 100 100 255
0.019629 -0.023058 0.218014 100 100 255
0.101802 -0.002018 0.014789 100 100 255
-0.000324 0.042992 -0.280868 100 100 255
0.075117 0.055411 -0.160258 100 100 255
0.241804 0.148346 -0.037821 100 100 255
0.106244 0.207392 0.045207 100 100 255
0.092567 -0.245129 0.282712 100 100 255
-0.032353 0.173789 -0.241412 100 100 255
-0.146095 -0.098121 0.289724 100 100 255
0.060643 -0.082798 0.154488 100 100 255
-0.032771 -0.094178 0.131587 100 100 255
0.114358 -0.049550 0.004040 100 100 255
0.320581 -0.135538 -0.038118 100 100 255
0.264355 0.114201 0.278603 100 100 255
0.435651 -0.097854 0.188124 100 100 255
-0.173942 -0.012969 -0.020737 100 100 255
-0.153575 -0.141813 -0.207922 100 100 255
-0.098143 -0.087909 0.111871 100 100 255
-0.059343 -0.267716 0.022539 100 100 255
-0.000341 0.334118 0.379771 100 100 255
-0.529461 0.003118 -0.041465 100 100 255
-0.122961 0.068817 -0.240029 100 100 255
0.201783 0.102929 -0.186057 100 100 255
-0.008017 0.083481 -0.014507 100 100 255
0.252055 -0.103072 -0.081850 100 100 255
-0.118797 -0.053156 -0.264607 100 100 255
0.255938 0.183790 -0.240938 100 100 255
0.050037 0.147652 -0.116712 100 100 255
0.151332 -0.093164 0.252595 100 100 255
0.388610 0.324014 -0.231405 100 100 255
0.099392 0.179574 0.092906 100 100 255
0.309846 0.055095 0.132984 100 100 255
0.037025 0.035082 -0.044088 100 100 255
-0.092763 -0.217969 -0.220886 100 100 255
0.017391 -0.148309 0.011687 100 100 255
-0.209667 0.017355 -0.265786 100 100 255
-0.000378 0.222174 -0.113848 100 100 255
-0.139316 -0.033697 0.102842 100 100 255
-0.070572 -0.042815 -0.086391 100 100 255
-0.196825 -0.109131 -0.271847 100 100 255
0.184310 0.083918 -0.292801 100 100 255
-0.001788 0.238925 0.185464 100 100 255
0.206483 0.102564 -0.218256 100 100 255
-0.081547 0.207790 -0.112645 100 100 255
-0.069884 -0.204983 0.224612 100 100 255
0.052869 -0.085040 0.357572 100 100 255
0.145036 -0.024302 0.006596 100 100 255
0.065081 -0.162205 0.740137 100 100 255
0.125314 0.020605 -0.117497 100 100 255
0.228933 0.214206 0.026896 100 100 255
-0.118423 -0.063584 -0.328836 100 100 255
0.383944 0.465400 0.008956 100 100 255
0.096037 0.152868 -0.063339 100 100 255
0.010919 -0.253259 -0.096570 100 100 255
-0.042725 -0.204659 0.080946 100 100 255
-0.199784 0.037652 0.308592 100 100 255
0.054746 -0.109476 -0.148374 100 100 255
0.010048 0.093552 0.299328 100 100 255
0.136877 0.288883 -0.089585 100 100 255
0.144791 0.319928 0.193404 100 100 255
-0.229676 0.100345 -0.164017 100 100 255
-0.242330 0.365426 0.249156 100 100 255
0.132541 0.227449 -0.154783 100 100 255
-0.044005 -0.057318 0.030965 100 100 255
-0.146272 -0.248870 -0.218899 100 100 255
-0.152399 -0.158990 0.015710 100 100 255
0.397638 0.138193 0.017011 100 100 255
-0.126168 0.166729 0.083351 100 100 255
-0.096845 0.043627 0.082657 100 100 255
-0.094278 0.271335 -0.058505 100 100 255
-0.125675 0.277690 0.162469 100 100 255
-0.068915 0.254478 -0.001199 100 100 255
0.205231 -0.156299 -0.049418 100 100 255
0.140902 -0.035552 -0.004151 100 100 255
-0.116005 -0.151725 0.006497 100 100 255
0.187671 -0.079481 0.145995 100 100 255
0.348021 0.541681 0.022708 100 100 255
-0.188648 0.106260 0.138398 100 100 255
-0.478205 0.173751 -0.089190 100 100 255
0.051997 0.158151 0.085931 100 100 255
0.039602 0.125848 0.263265 100 100 255
0.312051 -0.123712 0.053221 100 100 255
0.094655 0.091786 0.000985 100 100 255
-0.219229 -0.198347 0.112729 100 100 255
0.116187 0.258977 -0.025100 100 100 255
0.121888 -0.156123 0.007188 100 100 255
-0.475285 -0.069524 0.182817 100 100 255
0.112579 -0.055607 0.219075 100 100 255
-0.133274 0.219778 0.017302 100 100 255
0.043382 0.031505 0.254297 100 100 255
0.092811 -0.239171 0.001482 100 100 255
0.026269 -0.035359 -0.135389 100 100 255
0.048719 -0.099075 -0.075035 100 100 255
0.059791 0.128615 0.288623 100 100 255
0.457040 -0.213889 -0.063608 100 100 255
-0.011834 -0.098805 -0.203653 100 100 255
-0.060171 -0.156361 0.235455 100 100 255
0.100122 -0.025315 0.360472 100 100 255
0.367505 -0.133895 -0.115384 100 100 255
-0.066237 -0.212822 0.165894 100 100 255
0.093441 -0.340761 -0.139106 100 100 255
-0.178802 0.101423 0.108877 100 100 255
-0.219607 0.066947 0.101218 100 100 255
-0.327791 0.047146 0.080748 100 100 255
0.081267 0.166721 -0.285199 100 100 255
-0.407300 0.025301 0.057501 100 100 255
-0.141176 0.018442 -0.365221 100 100 255
0.171267 -0.000779 0.118726 100 100 255
0.281762 -0.108058 0.029268 100 100 255
0.010526 -0.199835 0.145769 100 100 255
-0.038633 -0.140574 0.071432 100 100 255
0.084714 -0.069794 -0.000513 100 100 255
0.474981 -0.354065 0.143038 100 100 255
0.192936 0.001731 0.005510 100 100 255
0.195648 0.222203 0.128345 100 100 255
0.054210 0.023053 0.086581 100 100 255
-0.222474 0.246719 -0.144243 100 100 255
0.090197 0.262725 0.011642 100 100 255
0.205847 -0.005229 -0.354198 100 100 255
0.114013 -0.046139 -0.038294 100 100 255
-0.012255 -0.106847 -0.072551 100 100 255
-0.090677 -0.055378 0.117716 100 100 255
0.319809 0.070111 0.401526 100 100 255
0.013883 -0.046244 0.006705 100 100 255
0.124529 -0.314218 -0.349556 100 100 255
-0.368971 -0.061186 -0.018605 100 100 255
-0.003886 0.200132 0.070381 100 100 255
-0.064821 0.182028 0.196637 100 100 255
0.197479 -0.131279 -0.364602 100 100 255
-0.005434 0.212158 -0.058360 100 100 255
0.262404 -0.006241 0.138260 100 100 255
-0.072802 0.139992 0.132386 100 100 255
0.197345 -0.190169 0.104983 100 100 255
0.401861 0.251136 -0.088296 100 100 255
0.123345 0.000448 0.360489 100 100 255
0.303887 0.216889 -0.187696 100 100 255
-0.364423 0.162115 -0.088018 100 100 255
0.087906 0.217252 -0.169167 100 100 255
0.303455 0.126408 0.096884 100 100 255
-0.047880 -0.175040 0.033615 100 100 255
-0.027682 -0.099741 0.019280 100 100 255
-0.007979 -0.145092 0.144650 100 100 255
0.221234 -0.231229 -0.105250 100 100 255
-0.148963 -0.342562 -0.292605 100 100 255
-0.297778 -0.062136 0.068548 100 100 255
-0.048512 -0.144238 0.045409 100 100 255
-0.357860 0.037794 0.199564 100 100 255
-0.058704 0.084139 -0.121552 100 100 255
0.336974 -0.105647 0.076612 100 100 255
-0.126967 0.383379 -0.266413 100 100 255
0.301225 0.063761 0.094928 100 100 255
-0.372151 -0.010395 0.299366 100 100 255
-0.042128 0.073696 0.096820 100 100 255
-0.189571 -0.204246 -0.078908 100 100 255
-0.273444 0.120793 -0.320251 100 100 255
0.104650 -0.239063 -0.137645 100 100 255
-0.288161 0.012691 -0.207413 100 100 255
0.107280 -0.157913 -0.033936 100 100 255
-0.069792 -0.091512 0.235191 100 100 255
0.376853 0.037293 -0.283811 100 100 255
-0.047898 0.170084 -0.117815 100 100 255
0.240675 0.107089 -0.172982 100 100 255
0.265236 0.243084 0.164652 100 100 255
0.309096 0.211386 0.056501 100 100 255
0.010277 0.113329 -0.005663 100 100 255
-0.024621 -0.169165 -0.442324 100 100 255
-0.045349 0.051453 0.107232 100 100 255
0.109504 -0.223667 -0.025976 100 100 255
-0.022814 0.126680 -0.195635 100 100 255
0.351206 -0.167914 0.002870 100 100 255
-0.040205 -0.262434 -0.155730 100 100 255
0.186592 -0.165599 -0.233500 100 100 255
-0.104865 0.098749 -0.022290 100 100 255
-0.028391 -0.071953 0.046467 100 100 255
0.033581 0.077832 0.101324 100 100 255
0.119771 0.495101 0.129096 100 100 255
-0.097716 -0.034948 0.116573 100 100 255
-0.205717 -0.158848 -0.501165 100 100 255
0.120416 0.024348 -0.067716 100 100 255
-0.069956 -0.124955 -0.138371 100 100 255
0.086127 0.278019 0.117839 100 100 255
0.217952 0.025182 0.054322 100 100 255
0.156173 -0.322155 -0.312970 100 100 255
-0.211960 -0.095954 0.279387 100 100 255
-0.231615 -0.051274 -0.163695 100 100 255
0.152867 -0.150033 0.279650 100 100 255
0.053466 0.237477 0.138356 100 100 255
-0.139506 0.099778 -0.172899 100 100 255
0.235794 0.066125 -0.161812 100 100 255
-0.209611 0.042265 0.217996 100 100 255
0.057131 0.080171 -0.082461 100 100 255
-0.024726 -0.375614 0.029628 100 100 255
0.254213 -0.078901 -0.051053 100 100 255
0.112900 -0.109322 -0.078718 100 100 255
-0.037846 0.364333 -0.028337 100 100 255
0.355667 0.018434 -0.279414 100 100 255
-0.117386 -0.403749 0.290917 100 100 255
-0.089180 0.027252 0.102855 100 100 255
0.369883 -0.249382 0.211740 100 100 255
0.388889 0.110831 0.019790 100 100 255
-0.264154 -0.042796 0.103820 100 100 255
-0.260551 -0.063648 0.225818 100 100 255
0.354734 0.298527 0.275580 100 100 255
-0.210920 -0.400857 -0.175186 100 100 255
0.130429 0.129264 -0.044681 100 100 255
0.226941 -0.148586 0.181385 100 100 255
-0.204865 -0.109031 -0.010337 100 100 255
0.054376 -0.029594 -0.006711 100 100 255
-0.037760 0.162194 0.343018 100 100 255
0.015773 0.451338 0.208848 100 100 255
-0.051312 -0.034938 -0.037399 100 100 255
0.124079 0.148653 0.262218 100 100 255
-0.027458 -0.166531 -0.194452 100 100 255
-0.525039 0.161281 0.167156 100 100 255
0.131351 0.054839 0.072860 100 100 255
0.243767 0.123922 -0.405668 100 100 255
-0.314825 -0.041460 0.125493 100 100 255
-0.186723 0.012032 0.014259 100 100 255
0.211331 -0.112983 0.008709 100 100 255
-0.037276 -0.438877 0.021191 100 100 255
0.174012 0.317402 -0.099446 100 100 255
0.039196 0.117280 -0.193306 100 100 255
-0.146990 0.128660 -0.114785 100 100 255
0.092247 -0.319187 -0.065713 100 100 255
0.057346 0.140877 0.211615 100 100 255
0.169142 -0.519991 0.189167 100 100 255
0.066603 -0.430381 -0.194997 100 100 255
-0.199108 0.015554 0.241026 100 100 255
0.156432 -0.031682 0.056014 100 100 255
0.104723 -0.144318 -0.219437 100 100 255
0.059104 -0.426595 -0.143021 100 100 255
-0.007057 -0.162611 0.346690 100 100 255
-0.116207 -0.035472 -0.231017 100 100 255
-0.009931 0.003922 -0.219398 100 100 255
-0.163386 0.276707 -0.118030 100 100 255
-0.272400 0.191700 -0.350371 100 100 255
-0.112792 0.130699 -0.440565 100 100 255
-0.114470 -0.114800 -0.188299 100 100 255
0.085846 0.255402 0.054259 100 100 255
-0.140004 0.124844 -0.283172 100 100 255
-0.298610 0.009955 0.095748 100 100 255
0.342283 -0.447941 0.133778 100 100 255
0.029642 -0.161487 -0.422725 100 100 255
-0.027235 -0.069150 0.112277 100 100 255
-0.054145 0.183059 -0.018297 100 100 255
0.087676 0.324670 -0.061002 100 100 255
-0.188090 -0.326308 -0.099865 100 100 255
0.120120 -0.226585 -0.044435 100 100 255
0.227857 0.178891 -0.036355 100 100 255
-0.064067 0.084201 0.279745 100 100 255
-0.064403 0.202461 -0.018743 100 100 255
0.022624 0.027905 -0.019893 100 100 255
-0.237245 -0.044931 0.143966 100 100 255
0.233723 -0.102896 -0.014150 100 100 255
-0.178403 0.154002 -0.376835 100 100 255
0.025865 -0.109979 0.037968 100 100 255
0.237980 0.002198 0.170085 100 100 255
-0.249745 -0.025717 -0.287322 100 100 255
0.117543 -0.004362 0.044501 100 100 255
-0.127756 0.247488 -0.074285 100 100 255
0.033764 0.027136 0.204979 100 100 255
0.055746 0.270920 0.143088 100 100 255
0.241671 -0.082711 -0.251491 100 100 255
0.372011 0.083857 0.000342 100 100 255
0.110407 0.155012 -0.194630 100 100 255
0.267205 0.259186 0.259097 100 100 255
-0.587350 -0.096011 0.208822 100 100 255
0.094641 0.003369 -0.343237 100 100 255
-0.105652 -0.275444 -0.065224 100 100 255
-0.076295 0.087821 0.011443 100 100 255
0.164653 -0.048022 0.177750 100 100 255
0.234597 0.368914 -0.439336 100 100 255
-0.034488 0.117908 -0.063304 100 100 255
0.033233 0.146494 -0.249641 100 100 255
-0.088329 0.191838 0.206104 100 100 255
-0.073823 0.198310 -0.358576 100 100 255
0.141851 0.066250 0.007773 100 100 255
-0.008762 -0.201073 -0.208556 100 100 255
-0.258143 -0.291899 0.178882 100 100 255
-0.170195 0.131294 -0.160252 100 100 255
-0.002741 0.167475 0.212516 100 100 255
0.256249 0.182067 -0.028933 100 100 255
-0.199010 -0.151342 -0.160668 100 100 255
0.001116 -0.488763 0.090018 100 100 255
0.142004 -0.124653 -0.204333 100 100 255
0.140730 0.147530 0.492820 100 100 255
0.076198 -0.071700 0.220319 100 100 255
0.017110 -0.100737 -0.056812 100 100 255
-0.152912 -0.314981 -0.174532 100 100 255
0.025613 -0.005080 -0.152521 100 100 255
-0.088357 -0.201515 -0.104602 100 100 255
0.152315 0.148040 0.148593 100 100 255
-0.298594 -0.279050 0.124137 100 100 255
0.027788 -0.061789 -0.239119 100 100 255
0.017296 -0.080091 0.052030 100 100 255
0.191430 0.006822 0.179017 100 100 255
0.041550 0.464184 -0.067375 100 100 255
-0.277740 0.353319 -0.096114 100 100 255
0.122976 -0.295105 0.112893 100 100 255
0.018287 -0.085442 -0.184950 100 100 255
-0.429037 0.133934 0.104572 100 100 255
0.171138 0.385803 -0.040556 100 100 255
0.208902 0.257876 0.175271 100 100 255
0.134653 0.380492 0.139242 100 100 255
-0.268490 0.162081 -0.120655 100 100 255
0.120433 0.122849 -0.092615 100 100 255
0.055112 -0.318011 0.161152 100 100 255
-0.223879 0.287484 -0.192712 100 100 255
0.237315 -0.179958 -0.114816 100 100 255
-0.165860 0.050119 -0.114228 100 100 255
0.140554 0.057584 -0.220602 100 100 255
0.135166 -0.007887 0.126299 100 100 255
0.077112 0.193594 -0.216935 100 100 255
0.233458 -0.273863 0.001455 100 100 255
0.197623 -0.078793 -0.174816 100 100 255
0.108950 0.038928 -0.505444 100 100 255
-0.056500 -0.502717 0.225680 100 100 255
0.054898 0.143322 -0.181639 100 100 255
0.005350 0.133674 -0.249408 100 100 255
0.176428 -0.061272 0.142976 100 100 255
-0.294858 0.390338 0.046608 100 100 255
0.144178 0.035659 0.104609 100 100 255
-0.329802 -0.259245 -0.100428 100 100 255
-0.103423 -0.330634 -0.125874 100 100 255
-0.131972 -0.243868 -0.007279 100 100 255
0.278622 -0.154910 -0.183972 100 100 255
0.277945 -0.376526 -0.206772 100 100 255
0.079979 0.016008 0.066743 100 100 255
-0.106461 -0.023994 -0.068998 100 100 255
0.090461 -0.083848 -0.259511 100 100 255
-0.040623 0.000700 -0.166340 100 100 255
0.100199 0.201616 -0.098681 100 100 255
-0.046333 0.231337 -0.086454 100 100 255
-0.190872 0.367110 0.339552 100 100 255
0.135023 -0.265271 -0.169064 100 100 255
0.292929 0.136977 -0.136438 100 100 255
0.357724 -0.118531 -0.249837 100 100 255
0.376714 -0.047819 -0.189676 100 100 255
-0.004381 0.062688 -0.030082 100 100 255
0.010575 0.099104 0.256479 100 100 255
0.256079 0.264160 -0.100208 100 100 255
-0.048571 0.261051 -0.329074 100 100 255
-0.054715 0.039986 0.268408 100 100 255
-0.343443 0.070897 0.023365 100 100 255
0.180317 0.004397 0.118450 100 100 255
0.064400 -0.117592 0.033907 100 100 255
-0.033152 -0.124808 -0.135598 100 100 255
0.316827 0.171104 -0.057831 100 100 255
0.004094 -0.359431 0.060128 100 100 255
0.184106 -0.220199 -0.077844 100 100 255
0.032099 0.014530 0.134249 100 100 255
-0.114032 -0.098125 -0.064410 100 100 255
-0.312863 0.285457 -0.116586 100 100 255
-0.005278 0.010142 0.035097 100 100 255
-0.009202 0.077055 0.054398 100 100 255
0.047130 0.143611 -0.210107 100 100 255
-0.413905 0.100859 -0.234627 100 100 255
0.067281 0.022747 0.169692 100 100 255
-0.041614 -0.224191 0.064325 100 100 255
0.050669 0.043561 -0.070665 100 100 255
-0.239221 -0.147196 -0.065207 100 100 255
-0.409839 -0.263502 0.417488 100 100 255
0.197606 0.104631 0.078920 100 100 255
0.094980 0.161449 0.041978 100 100 255
0.424203 -0.049425 0.252831 100 100 255
0.230486 -0.167329 -0.257528 100 100 255
0.118392 0.112152 0.014213 100 100 255
-0.050422 -0.031893 -0.014104 100 100 255
0.166264 0.078021 0.113447 100 100 255
-0.078496 -0.122371 0.284472 100 100 255
0.606877 0.104422 0.099456 100 100 255
0.208493 -0.079296 0.051379 100 100 255
0.006185 0.036172 -0.156425 100 100 255
-0.078272 -0.192596 0.030852 100 100 255
0.491002 -0.114256 -0.090684 100 100 255
0.144211 -0.162744 -0.157227 100 100 255
-0.039788 0.114790 -0.265537 100 100 255
-0.276250 0.013854 -0.124153 100 100 255
0.207929 -0.182232 -0.242686 100 100 255
0.356012 -0.096512 0.158535 100 100 255
0.148606 0.191009 -0.013546 100 100 255
-0.065970 0.095569 0.222611 100 100 255
-0.048759 -0.333119 0.098289 100 100 255
0.338253 0.110000 -0.455760 100 100 255
0.002176 0.033010 0.027621 100 100 255
0.102258 0.242754 0.023065 100 100 255
-0.147078 -0.182329 0.326503 100 100 255
0.148579 -0.164931 0.259521 100 100 255
0.247537 -0.218515 0.148272 100 100 255
-0.045097 -0.027155 -0.247728 100 100 255
0.047385 -0.116892 0.156970 100 100 255
0.166244 -0.155901 -0.217372 100 100 255
0.072330 -0.098508 -0.181618 100 100 255
0.381589 -0.133849 0.166785 100 100 255
0.348928 -0.283757 0.048153 100 100 255
-0.112844 -0.036356 0.183569 100 100 255
0.056584 -0.272883 -0.106053 100 100 255
0.113846 -0.113298 0.101479 100 100 255
0.547528 0.068970 -0.315089 100 100 255
-0.071662 -0.164373 -0.148179 100 100 255
0.042608 -0.278641 -0.106190 100 100 255
0.077194 0.020703 -0.141794 100 100 255
0.147215 -0.033615 -0.258958 100 100 255
-0.173605 -0.051138 0.106054 100 100 255
0.196014 -0.156492 0.035897 100 100 255
-0.051937 0.033499 -0.204419 100 100 255
0.084830 -0.279498 0.075172 100 100 255
0.052330 0.078855 -0.196215 100 100 255
-0.037461 0.403503 -0.315611 100 100 255
0.545453 0.045967 -0.031811 100 100 255
-0.201752 -0.179533 -0.196813 100 100 255
0.130335 0.260652 -0.242031 100 100 255
0.080438 -0.017782 -0.196892 100 100 255
0.059294 -0.036714 -0.256921 100 100 255
0.024495 -0.090896 0.242959 100 100 255
-0.157114 -0.096331 -0.211340 100 100 255
0.022954 -0.025411 -0.032678 100 100 255
-0.070701 0.255948 -0.088378 100 100 255
0.124464 0.150947 -0.161126 100 100 255
0.148142 -0.159119 -0.120677 100 100 255
0.130107 -0.382597 -0.022767 100 100 255
-0.238565 0.165302 -0.253493 100 100 255
-0.314630 -0.285901 0.100621 100 100 255
0.088921 -0.272792 0.059096 100 100 255
-0.199158 -0.184627 0.214712 100 100 255
0.114952 -0.177036 0.274473 100 100 255
0.121157 -0.099602 -0.261628 100 100 255
0.101131 -0.154848 0.249466 100 100 255
-0.096544 -0.198008 0.209599 100 100 255
-0.094812 -0.127971 -0.254556 100 100 255
-0.293346 -0.010465 -0.229723 100 100 255
-0.232165 -0.149491 -0.094507 100 100 255
-0.073003 0.107068 -0.075805 100 100 255
-0.094530 -0.027686 0.136355 100 100 255
-0.060647 0.183443 0.029174 100 100 255
0.249220 -0.177755 0.397872 100 100 255
0.055384 -0.173003 0.173847 100 100 255
-0.255957 -0.145875 -0.000660 100 100 255
-0.221755 0.036277 0.280616 100 100 255
0.180305 0.097673 -0.220258 100 100 255
0.050466 -0.067056 0.041730 100 100 255
0.001800 0.057033 -0.125657 100 100 255
0.017802 0.007005 -0.029593 100 100 255
-0.128016 0.122106 -0.138468 100 100 255
-0.125255 -0.415750 -0.080751 100 100 255
-0.200733 0.110399 0.080560 100 100 255
-0.032995 -0.076859 0.120679 100 100 255
-0.034377 0.125579 0.146609 100 100 255
-0.098604 -0.180970 -0.002669 100 100 255
-0.113675 -0.008193 -0.088074 100 100 255
-0.566273 -0.317424 -0.087986 100 100 255
-0.009112 0.021561 0.020169 100 100 255
-0.324904 0.105354 0.260687 100 100 255
-0.100607 -0.187914 -0.448125 100 100 255
-0.004326 -0.017768 -0.044043 100 100 255
-0.007654 0.096850 0.387476 100 100 255
-0.069017 0.179225 -0.148790 100 100 255
0.047184 0.037942 0.043525 100 100 255
-0.255369 0.282925 -0.009396 100 100 255
0.018305 0.102505 0.253467 100 100 255
-0.014601 0.274007 -0.209859 100 100 255
-0.047251 0.014319 -0.052270 100 100 255
0.000130 0.146771 -0.136719 100 100 255
0.271049 0.537978 0.192383 100 100 255
0.064997 -0.234854 -0.085819 100 100 255
0.041049 0.097634 -0.074802 100 100 255
-0.080991 0.170042 0.197221 100 100 255
-0.243815 -0.126152 0.151371 100 100 255
-0.139658 -0.091030 0.234587 100 100 255
-0.244192 0.033039 -0.168219 100 100 255
0.074110 -0.286954 -0.201659 100 100 255
0.016538 -0.274864 0.228666 100 100 255
-0.158133 -0.112063 0.069186 100 100 255
0.041434 0.016747 0.028740 100 100 255
-0.136083 -0.189903 0.230835 100 100 255
0.083095 0.158603 -0.229664 100 100 255
-0.044050 -0.105659 0.104754 100 100 255
-0.122074 0.261599 0.318541 100 100 255
0.044714 0.088370 0.054291 100 100 255
0.057282 -0.130852 -0.069476 100 100 255
0.430500 -0.201974 -0.013196 100 100 255
0.027169 -0.141644 -0.061800 100 100 255
-0.099416 -0.319971 -0.210844 100 100 255
-0.101307 -0.007727 0.064099 100 100 255
-0.017368 -0.057892 0.121553 100 100 255
0.073813 -0.318061 0.335885 100 100 255
-0.098515 0.075634 0.222850 100 100 255
0.350748 -0.098623 0.001362 100 100 255
0.109914 -0.029520 -0.011914 100 100 255
-0.072388 -0.158356 -0.180575 100 100 255
-0.120370 -0.007958 0.418611 100 100 255
-0.023042 -0.023338 -0.152167 100 100 255
0.226669 -0.322663 0.007404 100 100 255
-0.172007 -0.212933 -0.199046 100 100 255
-0.151712 -0.004965 0.233447 100 100 255
0.150272 0.046716 -0.061778 100 100 255
-0.174127 -0.005070 0.028416 100 100 255
0.305862 -0.052056 0.336165 100 100 255
0.159967 0.106108 -0.104001 100 100 255
-0.260516 -0.295388 0.225904 100 100 255
0.133984 -0.152118 0.326179 100 100 255
-0.305390 0.017346 -0.233662 100 100 255
0.195745 -0.134400 -0.001699 100 100 255
-0.027379 0.120681 -0.095322 100 100 255
0.146282 0.033069 -0.200320 100 100 255
0.055701 -0.524808 0.188668 100 100 255
0.399763 -0.167481 0.015139 100 100 255
-0.109046 0.023195 -0.331893 100 100 255
0.189655 -0.238259 -0.019548 100 100 255
-0.595695 -0.046133 0.061720 100 100 255
