ply
format ascii 1.0
element vertex 1181
property float x
property float y
property float z
property uchar red
property uchar green
property uchar blue
end_header
-0.239833 0.162492 -0.197019 100 100 255
-0.182512 0.185871 -0.024407 100 100 255
-0.071215 -0.333659 -0.240054 100 100 255
-0.048530 0.319533 0.206400 100 100 255
0.371981 0.523139 0.076493 100 100 255
0.086942 -0.012373 -0.057495 100 100 255
0.266484 -0.045634 0.112887 100 100 255
-0.370790 -0.134653 -0.214206 100 100 255
0.114509 0.536559 0.122250 100 100 255
-0.433029 -0.101893 0.351200 100 100 255
0.095359 -0.092262 0.072617 100 100 255
0.038522 0.072979 -0.237805 100 100 255
0.027837 0.321237 -0.210109 100 100 255
-0.176156 0.214466 0.240569 100 100 255
0.162865 -0.191121 0.009083 100 100 255
-0.413977 -0.084223 -0.069778 100 100 255
-0.109935 -0.368639 -0.020380 100 100 255
-0.135511 0.346102 -0.292373 100 100 255
0.266547 0.410725 -0.323675 100 100 255
-0.072125 -0.405019 0.027707 100 100 255
-0.158894 -0.217980 0.207475 100 100 255
0.189943 -0.091138 0.009404 100 100 255
0.314457 0.161241 -0.027181 100 100 255
-0.072386 0.327085 0.016933 100 100 255
-0.285837 0.021906 0.508177 100 100 255
0.347881 0.054480 0.076767 100 100 255
-0.416781 -0.027612 0.060708 100 100 255
0.236324 0.030945 -0.330166 100 100 255
0.341891 -0.021011 -0.151584 100 100 255
0.067152 -0.174645 0.080684 100 100 255
-0.344220 -0.131395 -0.368200 100 100 255
-0.485785 0.026164 -0.065075 100 100 255
-0.154658 0.018720 -0.031755 100 100 255
-0.035049 -0.234298 -0.501621 100 100 255
-0.217905 0.192747 -0.171625 100 100 255
-0.085435 0.215267 -0.232556 100 100 255
0.205899 -0.291092 -0.074406 100 100 255
0.060662 -0.117584 0.049965 100 100 255
-0.179886 0.143124 0.166972 100 100 255
0.177102 -0.017076 0.007332 100 100 255
-0.098180 0.071607 -0.221273 100 100 255
-0.177344 0.050965 -0.110616 100 100 255
-0.068582 0.171570 -0.049127 100 100 255
-0.096329 0.278627 -0.544942 100 100 255
0.518570 -0.331610 0.168193 100 100 255
-0.120196 0.172394 -0.125089 100 100 255
0.009034 0.025004 -0.048334 100 100 255
0.041387 -0.352662 -0.041559 100 100 255
0.105094 0.224304 -0.070325 100 100 255
0.041642 -0.463438 -0.148706 100 100 255
-0.087414 -0.182550 0.022052 100 100 255
0.021012 -0.284822 -0.090559 100 100 255
0.056811 -0.293234 -0.151823 100 100 255
-0.084752 -0.159135 0.068531 100 100 255
-0.289781 -0.253060 -0.090128 100 100 255
-0.083701 0.293224 0.000963 100 100 255
-0.253114 -0.089186 0.731972 100 100 255
0.085451 -0.201160 -0.426679 100 100 255
-0.009661 -0.150358 0.252151 100 100 255
0.119136 0.015173 -0.365882 100 100 255
-0.017854 0.140072 -0.300418 100 100 255
-0.177981 0.058992 0.219669 100 100 255
-0.271433 -0.125111 -0.292655 100 100 255
-0.161751 -0.062150 -0.311816 100 100 255
0.025506 -0.301992 0.166938 100 100 255
0.078845 0.228158 -0.041713 100 100 255
0.081414 0.180388 0.008480 100 100 255
0.129423 -0.205440 0.227303 100 100 255
-0.409435 0.222899 -0.226330 100 100 255
-0.032042 -0.410697 0.194174 100 100 255
0.091392 0.142348 0.002951 100 100 255
-0.036267 0.160009 0.231136 100 100 255
0.509770 0.089842 -0.083057 100 100 255
-0.036910 -0.208114 -0.258761 100 100 255
-0.088823 0.145514 -0.181163 100 100 255
0.151767 -0.067189 0.273299 100 100 255
0.023432 0.032322 0.013616 100 100 255
0.205936 0.143037 0.275136 100 100 255
0.056523 0.196569 -0.636911 100 100 255
0.261432 0.015022 0.202177 100 100 255
0.201578 0.154959 -0.096276 100 100 255
-0.063822 -0.149220 -0.114098 100 100 255
0.028496 0.579725 -0.135003 100 100 255
0.111683 -0.094484 0.439576 100 100 255
-0.176367 0.018830 0.398955 100 100 255
0.349538 0.556856 0.136467 100 100 255
0.153105 0.101835 -0.028736 100 100 255
-0.013858 0.496838 0.161185 100 100 255
-0.083405 -0.056285 0.292523 100 100 255
-0.184725 0.127119 -0.128840 100 100 255
-0.133138 0.046213 -0.462228 100 100 255
0.023152 0.141522 -0.193072 100 100 255
-0.083174 0.136760 -0.026995 100 100 255
-0.100136 -0.212005 -0.020564 100 100 255
0.145556 -0.074891 -0.020220 100 100 255
0.257791 0.015110 0.296261 100 100 255
0.149286 -0.291858 0.376862 100 100 255
-0.332896 0.159710 -0.115959 100 100 255
-0.060791 -0.235566 0.263015 100 100 255
0.491023 -0.124952 -0.237825 100 100 255
-0.344587 -0.432691 -0.093853 100 100 255
-0.345073 0.042744 -0.156610 100 100 255
-0.112724 0.145981 -0.071531 100 100 255
0.308985 -0.315967 0.021487 100 100 255
-0.248728 -0.077725 0.115854 100 100 255
-0.599933 -0.313919 -0.226560 100 100 255
0.193155 -0.456355 0.037370 100 100 255
0.078733 0.148324 0.031647 100 100 255
-0.101547 -0.245172 -0.382214 100 100 255
-0.094196 -0.156244 -0.243073 100 100 255
0.560348 0.007412 0.003752 100 100 255
0.033185 0.174666 -0.061474 100 100 255
0.119747 0.057290 -0.030927 100 100 255
0.298112 -0.064350 0.002304 100 100 255
-0.099494 0.178910 0.045323 100 100 255
0.054927 -0.028645 0.167737 100 100 255
0.017207 -0.140395 0.517797 100 100 255
0.197944 -0.186114 -0.117427 100 100 255
-0.001885 0.141141 0.024563 100 100 255
0.126749 0.694879 0.003850 100 100 255
-0.111628 0.067436 0.029712 100 100 255
0.517905 -0.186481 -0.139432 100 100 255
0.085332 0.027143 -0.150392 100 100 255
-0.071428 -0.361139 0.072195 100 100 255
0.029128 0.160335 0.080852 100 100 255
-0.237630 -0.112530 -0.370129 100 100 255
-0.465247 0.141027 -0.028168 100 100 255
-0.049310 0.502356 0.090346 100 100 255
0.421134 0.178085 -0.340322 100 100 255
0.325236 0.170166 -0.007768 100 100 255
0.144867 -0.007273 0.386002 100 100 255
-0.243348 -0.210864 -0.316109 100 100 255
-0.135063 0.175814 -0.198099 100 100 255
-0.041394 -0.304665 0.145737 100 100 255
-0.083424 0.072056 0.161361 100 100 255
0.236661 -0.083963 -0.209263 100 100 255
0.460879 -0.167228 -0.332918 100 100 255
0.463083 0.259938 -0.025530 100 100 255
0.117449 -0.068575 0.130796 100 100 255
0.180608 0.133161 0.417382 100 100 255
-0.281513 0.307990 -0.090730 100 100 255
0.011355 -0.238668 -0.203982 100 100 255
0.378419 0.016241 0.126807 100 100 255
-0.231383 -0.177960 -0.064370 100 100 255
0.142782 -0.076976 0.189281 100 100 255
0.272059 0.067684 -0.279620 100 100 255
0.086291 0.154746 -0.076399 100 100 255
0.053932 0.007883 -0.018361 100 100 255
-0.040972 0.100090 -0.210115 100 100 255
0.231895 -0.278489 -0.115974 100 100 255
-0.210665 -0.062949 0.367781 100 100 255
0.108049 0.034327 -0.021332 100 100 255
0.154356 -0.152119 -0.258732 100 100 255
0.127731 0.211261 0.183196 100 100 255
0.090669 -0.187479 0.196387 100 100 255
0.066978 0.085922 -0.049574 100 100 255
-0.378608 -0.173289 -0.120818 100 100 255
-0.249433 0.162981 -0.136702 100 100 255
-0.038885 0.207847 0.119107 100 100 255
-0.048159 -0.156369 0.091459 100 100 255
0.224876 0.116291 -0.114264 100 100 255
-0.303413 0.138400 0.025946 100 100 255
-0.087213 -0.103441 0.311219 100 100 255
-0.172937 -0.261843 -0.082453 100 100 255
-0.125270 -0.156434 0.080028 100 100 255
-0.210302 0.265897 0.410098 100 100 255
-0.015072 -0.134944 0.018873 100 100 255
0.181661 0.492453 -0.083453 100 100 255
0.265297 0.206956 0.088735 100 100 255
0.128235 -0.281421 0.071153 100 100 255
0.143905 0.168917 0.205282 100 100 255
0.185165 0.083702 0.044462 100 100 255
0.172674 -0.002040 -0.268719 100 100 255
0.041042 0.378202 -0.220615 100 100 255
0.182889 -0.022097 0.014743 100 100 255
0.037182 0.280827 -0.040986 100 100 255
0.227356 -0.121252 0.232874 100 100 255
0.186446 0.067664 0.251446 100 100 255
-0.316321 -0.203918 -0.081192 100 100 255
-0.145295 0.025831 0.570555 100 100 255
-0.247666 -0.119360 -0.033266 100 100 255
-0.332703 -0.045207 0.101053 100 100 255
-0.187777 -0.187268 0.146143 100 100 255
-0.010644 -0.370900 0.113004 100 100 255
0.185345 -0.104508 -0.176082 100 100 255
0.069894 0.291220 0.013004 100 100 255
0.226081 -0.022013 -0.271967 100 100 255
-0.049274 0.045551 -0.136697 100 100 255
0.023681 -0.270905 0.005914 100 100 255
0.216604 -0.168512 0.027599 100 100 255
-0.337633 -0.083265 0.348807 100 100 255
-0.205333 -0.023997 0.312879 100 100 255
0.048287 -0.043515 -0.304457 100 100 255
0.100545 -0.043457 -0.138317 100 100 255
0.076098 0.183488 0.128398 100 100 255
0.033025 -0.068066 -0.126769 100 100 255
-0.545335 0.032723 -0.110133 100 100 255
0.129765 -0.268235 0.327892 100 100 255
0.064830 -0.286634 -0.021241 100 100 255
0.490173 0.177407 0.047576 100 100 255
-0.036275 -0.090158 0.404594 100 100 255
-0.054452 -0.182021 0.475901 100 100 255
-0.431859 0.261733 0.282274 100 100 255
0.249157 -0.269630 -0.011234 100 100 255
0.138884 -0.373242 0.235931 100 100 255
0.525856 -0.082093 -0.058878 100 100 255
-0.013358 0.052900 -0.201629 100 100 255
-0.244670 0.084120 -0.017836 100 100 255
0.081091 0.097569 -0.033928 100 100 255
-0.112853 -0.130220 0.125535 100 100 255
-0.096521 -0.182104 0.092551 100 100 255
0.135314 0.287817 0.232709 100 100 255
0.199818 -0.182565 0.365543 100 100 255
-0.458432 0.168483 0.273740 100 100 255
-0.172437 -0.158599 0.094032 100 100 255
0.130759 0.462777 0.268236 100 100 255
-0.318443 -0.310244 0.065895 100 100 255
0.038334 0.195879 0.105417 100 100 255
-0.123335 -0.138913 -0.052185 100 100 255
-0.205679 0.242021 -0.079456 100 100 255
-0.296264 -0.124393 -0.596809 100 100 255
-0.126849 0.366049 0.124679 100 100 255
0.034654 -0.005429 0.139735 100 100 255
-0.177316 -0.124177 -0.036443 100 100 255
0.187072 0.164684 -0.357896 100 100 255
-0.075281 0.052119 -0.013388 100 100 255
-0.000603 0.205893 -0.279309 100 100 255
-0.220387 -0.144956 -0.287158 100 100 255
-0.086239 0.049594 -0.416927 100 100 255
0.284616 -0.120596 0.032845 100 100 255
-0.145427 -0.120680 0.267704 100 100 255
0.232239 -0.242834 -0.321439 100 100 255
-0.074972 -0.189283 0.265231 100 100 255
0.050630 -0.108912 0.028932 100 100 255
0.178659 -0.001357 0.458492 100 100 255
-0.076472 -0.015678 -0.083300 100 100 255
-0.150481 0.309825 0.182509 100 100 255
-0.183451 -0.206112 -0.358338 100 100 255
-0.035416 0.054059 0.126831 100 100 255
-0.226359 -0.241462 0.219879 100 100 255
-0.215688 -0.221857 0.184669 100 100 255
-0.012295 -0.254202 -0.049915 100 100 255
0.049453 0.266358 -0.241761 100 100 255
-0.148017 0.071218 -0.158581 100 100 255
0.076221 0.078534 -0.326953 100 100 255
-0.009777 0.466351 0.063670 100 100 255
-0.256217 -0.036068 -0.037686 100 100 255
-0.238090 0.086692 0.068093 100 100 255
0.138956 0.086566 -0.002627 100 100 255
0.107764 -0.134575 0.311431 100 100 255
0.208969 0.064517 -0.374037 100 100 255
-0.285050 -0.304332 0.018839 100 100 255
0.273458 -0.242617 -0.045051 100 100 255
-0.146526 -0.320804 -0.378071 100 100 255
-0.073051 -0.250271 -0.039520 100 100 255
0.128185 0.031739 0.109540 100 100 255
0.026449 0.123401 0.098553 100 100 255
-0.034940 -0.024465 -0.035403 100 100 255
0.315836 -0.379031 -0.294190 100 100 255
0.049764 0.110102 -0.052426 100 100 255
0.339308 0.298406 0.130841 100 100 255
-0.207236 0.304542 -0.322832 100 100 255
-0.110461 -0.098338 -0.167892 100 100 255
0.215152 -0.122045 0.088785 100 100 255
-0.085006 -0.157962 -0.155146 100 100 255
-0.198543 -0.317858 0.401416 100 100 255
0.222662 -0.225520 -0.396518 100 100 255
-0.029554 0.071589 0.506711 100 100 255
-0.061570 -0.142743 0.073043 100 100 255
0.061742 -0.099796 -0.007282 100 100 255
-0.120832 0.280624 0.271290 100 100 255
0.086994 -0.160580 -0.248264 100 100 255
-0.156429 0.086654 0.314911 100 100 255
-0.197737 -0.197504 0.037984 100 100 255
0.111572 -0.162028 0.324220 100 100 255
0.441961 0.024185 0.582383 100 100 255
0.032016 -0.136470 -0.017927 100 100 255
0.035892 0.114266 -0.044124 100 100 255
0.042390 0.239809 -0.258651 100 100 255
-0.070313 0.128225 0.252836 100 100 255
-0.403949 -0.197674 0.218468 100 100 255
-0.118618 0.155903 0.096780 100 100 255
0.174504 0.076429 0.350219 100 100 255
-0.016730 0.041924 0.034223 100 100 255
0.110881 0.189523 0.113457 100 100 255
-0.321897 -0.033749 0.273205 100 100 255
-0.006519 -0.161620 -0.246774 100 100 255
0.136283 -0.263415 0.084674 100 100 255
0.192413 -0.391684 0.165683 100 100 255
-0.255417 0.000609 -0.165186 100 100 255
-0.147792 0.313399 0.094917 100 100 255
0.378433 0.167706 -0.129292 100 100 255
0.075403 -0.024538 -0.060179 100 100 255
-0.026152 0.082073 -0.483971 100 100 255
-0.186125 -0.184333 0.050615 100 100 255
-0.129077 0.285748 0.264227 100 100 255
-0.050462 0.025322 -0.253164 100 100 255
-0.116200 -0.123839 0.011305 100 100 255
0.293996 -0.436690 -0.003331 100 100 255
-0.012503 -0.251215 0.070856 100 100 255
-0.025234 0.242416 -0.087626 100 100 255
-0.269316 -0.164888 0.397863 100 100 255
0.094086 -0.278882 0.248746 100 100 255
0.450744 -0.137691 -0.007407 100 100 255
0.133804 0.472528 0.009933 100 100 255
0.183346 -0.547817 -0.330352 100 100 255
-0.039948 -0.316798 -0.005796 100 100 255
-0.017656 -0.396275 0.307905 100 100 255
0.013367 -0.197453 -0.079519 100 100 255
0.200665 0.025362 -0.447636 100 100 255
-0.083721 -0.059726 0.135597 100 100 255
-0.031660 0.032801 -0.191806 100 100 255
-0.157575 0.059911 -0.262046 100 100 255
-0.556098 0.122748 -0.106662 100 100 255
0.070058 0.003222 0.066177 100 100 255
-0.331789 -0.263448 0.042986 100 100 255
0.406157 -0.161204 0.142431 100 100 255
0.119146 -0.123178 0.010959 100 100 255
0.126067 0.012864 -0.129859 100 100 255
0.053704 -0.195384 -0.038375 100 100 255
-0.194718 -0.001552 -0.236606 100 100 255
0.000487 0.045926 -0.046239 100 100 255
0.032559 -0.069012 0.167074 100 100 255
0.183597 -0.322972 -0.145570 100 100 255
0.105009 0.027470 -0.264068 100 100 255
-0.186129 0.213198 0.087780 100 100 255
0.148713 -0.103388 0.424497 100 100 255
0.167581 0.188483 0.000480 100 100 255
-0.126478 -0.191242 0.150189 100 100 255
0.440427 0.120706 -0.160359 100 100 255
-0.204378 0.019860 -0.092045 100 100 255
0.323292 0.205005 -0.104760 100 100 255
0.054070 -0.024950 -0.251797 100 100 255
0.041151 0.433970 0.095362 100 100 255
0.068456 0.264866 0.282744 100 100 255
0.354849 0.418788 0.103140 100 100 255
0.376572 -0.243619 -0.154056 100 100 255
0.237980 0.061640 0.384131 100 100 255
-0.130398 -0.312359 0.054047 100 100 255
-0.284214 0.163696 0.196499 100 100 255
-0.226980 -0.258478 -0.486314 100 100 255
0.181762 -0.058141 -0.091650 100 100 255
-0.114840 0.252207 -0.111922 100 100 255
0.179379 0.090027 0.180822 100 100 255
0.182659 0.008889 -0.183551 100 100 255
-0.260797 0.448228 -0.077943 100 100 255
0.068078 0.048969 -0.380249 100 100 255
-0.119936 -0.017999 0.002309 100 100 255
-0.140066 -0.037784 -0.283854 100 100 255
0.139344 -0.062951 0.133112 100 100 255
-0.165024 -0.441348 0.013899 100 100 255
0.204016 -0.409806 0.198694 100 100 255
0.025541 -0.099743 -0.028986 100 100 255
0.330241 -0.310025 0.244495 100 100 255
0.253339 0.265938 0.051280 100 100 255
-0.000176 -0.003598 -0.414415 100 100 255
-0.015861 -0.139358 -0.030273 100 100 255
0.642413 -0.128954 0.146321 100 100 255
-0.185566 -0.021651 -0.198981 100 100 255
-0.149111 0.112470 0.014016 100 100 255
0.104659 -0.201927 0.151159 100 100 255
-0.197179 0.076211 0.320872 100 100 255
0.002108 -0.221185 0.047003 100 100 255
-0.065144 -0.145527 0.469655 100 100 255
-0.047012 0.431241 -0.076773 100 100 255
-0.162287 0.299584 0.118866 100 100 255
-0.236459 -0.101985 0.285638 100 100 255
-0.097939 -0.030407 0.075060 100 100 255
-0.107113 -0.335484 -0.188623 100 100 255
-0.217112 0.233945 0.109150 100 100 255
0.246304 -0.197956 -0.116618 100 100 255
0.106345 -0.020556 0.261855 100 100 255
-0.044551 -0.404485 0.019788 100 100 255
0.040709 0.552382 -0.077954 100 100 255
0.126519 0.081968 -0.132525 100 100 255
0.346445 -0.121166 -0.109944 100 100 255
0.181167 -0.119836 0.375538 100 100 255
0.289672 0.013980 0.006718 100 100 255
0.212401 -0.324564 -0.445872 100 100 255
0.015278 0.413718 0.010474 100 100 255
0.122038 0.201558 0.382061 100 100 255
-0.142305 0.047597 0.111470 100 100 255
0.008278 -0.143910 -0.137413 100 100 255
0.414422 0.105624 0.168348 100 100 255
0.127413 -0.277502 -0.228626 100 100 255
0.301385 -0.118450 -0.029626 100 100 255
0.318959 0.038309 0.251209 100 100 255
0.162035 -0.356594 0.105496 100 100 255
-0.207395 0.156169 -0.049910 100 100 255
-0.119816 0.068846 -0.308134 100 100 255
-0.145848 0.012408 0.248782 100 100 255
0.198593 0.019587 0.168806 100 100 255
-0.046160 -0.228049 -0.304162 100 100 255
0.321734 -0.093794 0.157409 100 100 255
-0.192175 0.080158 0.004944 100 100 255
0.335261 -0.072095 0.043922 100 100 255
-0.067693 0.002715 -0.008713 100 100 255
-0.166896 0.193957 -0.024679 100 100 255
0.136824 -0.479979 0.065575 100 100 255
0.357532 0.196893 -0.162794 100 100 255
-0.045998 -0.110014 0.063427 100 100 255
-0.207908 -0.096435 0.321812 100 100 255
-0.016838 0.207406 -0.089982 100 100 255
0.139399 -0.056702 0.144671 100 100 255
0.126138 -0.158548 -0.108073 100 100 255
0.246606 -0.531917 -0.314575 100 100 255
-0.090252 0.106091 0.511538 100 100 255
-0.172757 0.537011 0.394413 100 100 255
0.133486 0.083819 -0.332804 100 100 255
0.221215 0.114277 -0.230506 100 100 255
-0.118672 -0.061749 -0.076811 100 100 255
-0.057857 0.197031 0.010413 100 100 255
0.194977 -0.279334 0.053842 100 100 255
0.327234 -0.017003 -0.198804 100 100 255
0.143196 -0.092034 -0.212608 100 100 255
0.127327 -0.155283 0.061109 100 100 255
-0.438573 -0.019495 0.157072 100 100 255
-0.093882 0.170554 0.074291 100 100 255
0.233654 -0.125535 0.055771 100 100 255
0.361772 -0.072044 0.335947 100 100 255
0.283611 -0.208958 -0.075781 100 100 255
0.002029 -0.151485 0.073262 100 100 255
0.045617 -0.269477 0.035627 100 100 255
0.101201 0.034052 -0.056040 100 100 255
0.424184 0.122236 -0.576744 100 100 255
-0.132360 -0.000136 0.232821 100 100 255
0.053305 0.427373 0.214109 100 100 255
0.160355 0.180277 -0.005157 100 100 255
0.295443 0.274861 -0.055085 100 100 255
-0.375849 -0.016902 0.093510 100 100 255
0.085796 -0.272250 -0.059393 100 100 255
0.084072 0.166627 -0.436657 100 100 255
0.215407 -0.199976 0.155413 100 100 255
0.070837 0.228471 -0.061150 100 100 255
0.140051 -0.390179 -0.197709 100 100 255
0.262468 -0.189721 -0.033939 100 100 255
-0.169645 0.241750 0.254649 100 100 255
-0.084070 -0.103379 -0.347911 100 100 255
0.092707 -0.084515 -0.045687 100 100 255
0.165041 -0.214451 0.172544 100 100 255
-0.399730 0.033407 0.075424 100 100 255
0.522417 -0.069275 0.182605 100 100 255
0.338721 -0.202626 0.008337 100 100 255
-0.595991 0.007696 -0.202068 100 100 255
0.202469 0.028664 0.101141 100 100 255
-0.111150 -0.504322 0.190292 100 100 255
-0.136635 -0.361835 0.202092 100 100 255
-0.253832 0.109981 -0.064067 100 100 255
0.020841 -0.173206 -0.178499 100 100 255
0.230668 0.153982 0.261912 100 100 255
-0.216272 -0.000806 -0.204445 100 100 255
-0.024603 0.052382 -0.026996 100 100 255
0.125574 0.133913 -0.356694 100 100 255
0.121278 0.093320 -0.040545 100 100 255
-0.392388 0.015350 -0.017801 100 100 255
-0.578371 0.372663 -0.055079 100 100 255
-0.163171 -0.299921 -0.127073 100 100 255
0.045974 -0.522735 -0.067056 100 100 255
-0.189441 -0.174403 0.409588 100 100 255
-0.234257 0.147584 -0.388808 100 100 255
-0.052731 -0.077765 0.006587 100 100 255
0.034988 0.321184 -0.360550 100 100 255
0.236769 0.167520 0.085486 100 100 255
-0.231759 -0.181649 -0.416600 100 100 255
-0.460185 -0.100615 -0.177272 100 100 255
0.010945 0.277552 0.002810 100 100 255
0.102803 0.150786 0.023787 100 100 255
0.155518 -0.035592 -0.002293 100 100 255
0.274600 0.000221 -0.083813 100 100 255
-0.115091 0.083877 0.456404 100 100 255
-0.501856 -0.298668 -0.092300 100 100 255
0.277413 -0.064653 0.065564 100 100 255
-0.421319 -0.387709 0.287193 100 100 255
0.196380 0.158016 0.396079 100 100 255
0.136229 -0.062542 0.000247 100 100 255
0.461225 -0.199248 -0.430591 100 100 255
0.197013 -0.025616 0.205281 100 100 255
0.436792 -0.017633 -0.229656 100 100 255
-0.138712 -0.271883 0.316255 100 100 255
-0.026745 -0.044115 0.404902 100 100 255
-0.179180 0.036435 0.036739 100 100 255
0.104878 0.143836 -0.116708 100 100 255
-0.116835 0.007478 -0.292710 100 100 255
0.086745 0.331292 0.052695 100 100 255
-0.199334 -0.186557 -0.433241 100 100 255
-0.225060 0.038111 0.355542 100 100 255
-0.051277 0.013965 -0.036354 100 100 255
0.085678 -0.332220 -0.114625 100 100 255
0.246082 0.159874 0.186833 100 100 255
0.145375 0.154863 -0.031870 100 100 255
0.083655 0.263639 -0.175410 100 100 255
0.063099 0.454268 0.157873 100 100 255
0.056929 0.058913 0.031496 100 100 255
-0.208666 0.297842 0.284461 100 100 255
-0.097877 0.039153 -0.089327 100 100 255
-0.034694 0.428614 0.182083 100 100 255
-0.009080 0.121521 0.046836 100 100 255
-0.014659 -0.094570 -0.189040 100 100 255
0.130635 0.094810 0.362388 100 100 255
0.003966 -0.175686 -0.293053 100 100 255
-0.226245 0.155029 -0.119004 100 100 255
-0.092581 -0.077535 0.210225 100 100 255
-0.242344 0.110717 0.012219 100 100 255
0.214250 0.417816 -0.086711 100 100 255
0.220605 0.131771 -0.065579 100 100 255
0.474522 -0.024300 0.546802 100 100 255
0.500440 0.406168 -0.249170 100 100 255
-0.024161 -0.102347 0.544502 100 100 255
0.075943 -0.137091 0.333219 100 100 255
0.550727 0.347043 -0.043021 100 100 255
-0.038651 0.423433 -0.094392 100 100 255
-0.045884 -0.299980 0.344236 100 100 255
0.279304 -0.476663 0.217445 100 100 255
0.117665 0.275633 -0.333175 100 100 255
-0.122937 0.444326 0.051379 100 100 255
-0.477203 -0.392178 -0.382587 100 100 255
-0.090011 -0.043244 -0.241751 100 100 255
-0.274082 0.013532 0.174081 100 100 255
-0.089422 0.464063 0.188554 100 100 255
0.200814 -0.361201 -0.045796 100 100 255
0.697274 0.009044 0.211252 100 100 255
0.073885 0.006877 -0.103998 100 100 255
-0.033283 0.129428 -0.101909 100 100 255
-0.286252 0.001987 -0.142927 100 100 255
0.154428 0.246061 0.334970 100 100 255
0.282349 0.066576 -0.057398 100 100 255
-0.021737 0.267779 0.034597 100 100 255
-0.181832 -0.325947 0.317882 100 100 255
-0.666183 -0.287105 0.068428 100 100 255
-0.166751 0.127737 0.062133 100 100 255
0.036779 0.276879 -0.096460 100 100 255
-0.088723 -0.167111 0.293286 100 100 255
-0.104307 -0.482772 -0.105523 100 100 255
0.164722 -0.259492 0.161035 100 100 255
0.248780 -0.016708 -0.176511 100 100 255
0.081702 0.054976 -0.240656 100 100 255
0.007239 0.063776 0.031355 100 100 255
0.177455 -0.258129 0.245913 100 100 255
-0.050743 -0.122382 0.105879 100 100 255
0.004784 -0.389247 -0.185709 100 100 255
0.188379 -0.096544 -0.476903 100 100 255
0.025844 0.178923 -0.307497 100 100 255
0.185951 0.291721 0.029489 100 100 255
-0.286518 -0.135800 0.062747 100 100 255
-0.080925 0.517645 0.283405 100 100 255
-0.034159 0.167255 -0.281330 100 100 255
0.037125 0.011320 -0.227480 100 100 255
-0.038358 0.015085 -0.091121 100 100 255
0.050916 0.119344 -0.185490 100 100 255
-0.208189 -0.117302 -0.193818 100 100 255
-0.267407 -0.009913 0.044168 100 100 255
-0.135471 0.201498 -0.177928 100 100 255
0.058103 0.113110 -0.230151 100 100 255
0.071389 -0.144826 0.354029 100 100 255
0.351207 0.152457 0.064757 100 100 255
-0.076725 0.054930 0.104551 100 100 255
-0.013066 -0.077005 -0.281636 100 100 255
-0.200070 -0.093531 0.064025 100 100 255
0.042167 -0.238724 0.069081 100 100 255
-0.107006 0.155085 -0.083320 100 100 255
0.079285 0.048401 -0.092920 100 100 255
0.104245 0.187982 0.079109 100 100 255
-0.007935 -0.434024 -0.048495 100 100 255
-0.228161 -0.316810 -0.123242 100 100 255
-0.164559 -0.003845 -0.268602 100 100 255
-0.425122 -0.278864 0.348192 100 100 255
0.264488 0.477354 0.364771 100 100 255
0.087333 -0.091124 0.012337 100 100 255
-0.196188 -0.409657 -0.027291 100 100 255
0.383227 0.105396 -0.001749 100 100 255
0.017269 0.302044 0.568637 100 100 255
-0.189803 -0.232109 -0.051196 100 100 255
-0.105682 -0.236359 0.005935 100 100 255
-0.051311 -0.010668 0.168586 100 100 255
0.182604 0.501517 -0.249365 100 100 255
-0.040798 -0.252929 -0.075562 100 100 255
-0.049931 -0.229432 -0.185936 100 100 255
0.017576 0.174057 -0.245198 100 100 255
0.157678 0.271877 0.118329 100 100 255
-0.273011 0.107588 -0.424001 100 100 255
0.005489 -0.517442 -0.227220 100 100 255
-0.038375 -0.344102 0.018098 100 100 255
0.158705 -0.111860 -0.264610 100 100 255
0.141381 -0.027920 0.303306 100 100 255
-0.094397 0.288277 0.075366 100 100 255
-0.164523 -0.198053 0.356715 100 100 255
-0.410023 -0.255210 -0.128168 100 100 255
0.236013 -0.205384 -0.153434 100 100 255
0.032905 0.224815 0.038826 100 100 255
0.066075 -0.069301 -0.042810 100 100 255
-0.208309 -0.343911 -0.145108 100 100 255
0.019803 0.272739 0.253399 100 100 255
-0.154813 0.117280 -0.284161 100 100 255
-0.173083 -0.035178 0.116422 100 100 255
0.335832 -0.301520 -0.250205 100 100 255
0.012306 0.040984 -0.365398 100 100 255
-0.158097 0.166943 0.199100 100 100 255
-0.552248 -0.297680 0.033920 100 100 255
-0.190020 0.031970 -0.510953 100 100 255
0.316856 0.111163 0.523579 100 100 255
-0.553068 0.190656 0.091494 100 100 255
0.446255 -0.098087 -0.075218 100 100 255
-0.255322 -0.322077 -0.035677 100 100 255
-0.347621 -0.041719 -0.199577 100 100 255
0.085795 0.069566 0.212387 100 100 255
-0.062895 -0.093249 0.331240 100 100 255
-0.332285 0.355043 0.023422 100 100 255
-0.078512 -0.121902 -0.130179 100 100 255
-0.124346 0.121566 -0.297233 100 100 255
-0.467653 0.184710 -0.365384 100 100 255
0.036929 0.038773 -0.274126 100 100 255
-0.148804 0.262813 -0.276697 100 100 255
0.243011 -0.458388 0.358200 100 100 255
-0.037926 0.215877 0.018649 100 100 255
0.249783 0.172550 0.237963 100 100 255
0.113372 -0.178950 -0.051352 100 100 255
0.116817 -0.032147 -0.129027 100 100 255
-0.400124 0.096293 -0.042378 100 100 255
-0.214499 0.249654 -0.249069 100 100 255
-0.034495 0.388923 0.253585 100 100 255
-0.115759 -0.502921 0.195713 100 100 255
-0.066064 0.253368 0.135050 100 100 255
0.092273 -0.496178 0.165663 100 100 255
-0.231628 -0.023479 -0.164806 100 100 255
0.065551 0.148179 -0.239655 100 100 255
0.159910 0.026025 0.169997 100 100 255
-0.016076 -0.281948 -0.037307 100 100 255
0.231996 0.000089 -0.104430 100 100 255
-0.141733 0.119581 0.438706 100 100 255
0.237496 0.351985 0.253954 100 100 255
-0.238877 -0.288960 0.156282 100 100 255
0.075395 0.139660 0.409592 100 100 255
0.144136 -0.048106 -0.202115 100 100 255
-0.132087 -0.161399 0.001999 100 100 255
-0.097237 -0.045853 -0.064742 100 100 255
-0.051830 -0.120439 0.115252 100 100 255
0.080664 -0.273460 0.119491 100 100 255
-0.031756 -0.393839 0.476036 100 100 255
-0.156144 0.260747 -0.404632 100 100 255
-0.332250 0.309150 0.383999 100 100 255
0.132593 0.138254 0.201658 100 100 255
0.312716 -0.306792 -0.120296 100 100 255
0.491818 0.192983 0.259308 100 100 255
0.182138 -0.522235 0.073626 100 100 255
0.077012 0.050456 0.395188 100 100 255
0.023964 0.154471 -0.133240 100 100 255
0.091801 0.277267 0.111652 100 100 255
0.337888 -0.338085 0.168962 100 100 255
0.051224 -0.144901 -0.161301 100 100 255
0.104936 0.074761 0.004142 100 100 255
-0.363570 0.224562 -0.046429 100 100 255
0.181578 0.314104 -0.119897 100 100 255
0.176146 0.265833 -0.120768 100 100 255
0.188347 -0.218677 0.139488 100 100 255
-0.370577 0.026275 0.051517 100 100 255
0.133564 0.141450 0.361428 100 100 255
0.118224 -0.052412 0.139775 100 100 255
-0.317875 0.021732 -0.064063 100 100 255
0.046321 0.236864 0.181629 100 100 255
0.139652 -0.001985 -0.129403 100 100 255
0.173529 0.017977 0.193488 100 100 255
-0.136029 -0.125793 0.017673 100 100 255
-0.105820 0.275855 0.562814 100 100 255
-0.091328 0.231652 0.253434 100 100 255
-0.387942 -0.055315 -0.213162 100 100 255
-0.174622 -0.120887 -0.134169 100 100 255
-0.074910 -0.176336 0.137525 100 100 255
0.233860 -0.084773 -0.010367 100 100 255
0.134634 -0.219927 0.413786 100 100 255
-0.292804 0.076684 -0.100118 100 100 255
-0.324939 -0.321674 -0.088409 100 100 255
0.166051 0.485895 0.143769 100 100 255
-0.298196 -0.268220 -0.068348 100 100 255
0.160556 -0.544021 0.128318 100 100 255
0.121724 -0.016652 -0.055037 100 100 255
-0.252590 -0.114001 -0.052985 100 100 255
-0.278983 0.215558 -0.215824 100 100 255
0.073783 -0.099975 0.243985 100 100 255
0.368855 0.164411 -0.162444 100 100 255
0.512427 -0.028615 0.455551 100 100 255
-0.370458 -0.597810 0.066578 100 100 255
0.074075 0.085069 -0.151519 100 100 255
-0.315066 -0.321612 -0.078231 100 100 255
0.144490 0.013763 0.182611 100 100 255
-0.272405 0.245585 -0.222559 100 100 255
-0.115092 -0.128648 0.240506 100 100 255
0.111339 -0.135893 0.332313 100 100 255
0.345441 0.123515 -0.220688 100 100 255
0.209526 -0.198601 -0.161748 100 100 255
-0.301888 0.245858 -0.012089 100 100 255
-0.017299 0.149472 -0.175254 100 100 255
0.327917 0.028970 -0.264000 100 100 255
0.173348 0.133811 0.310239 100 100 255
0.040580 0.131112 -0.314057 100 100 255
0.047929 0.275310 -0.181332 100 100 255
0.097064 0.336051 -0.087661 100 100 255
-0.459074 -0.187908 0.014020 100 100 255
0.211203 0.057553 -0.025356 100 100 255
0.165896 0.283922 -0.076619 100 100 255
-0.097516 0.037387 -0.182446 100 100 255
0.067317 -0.029167 0.221500 100 100 255
0.426364 -0.246910 0.201335 100 100 255
0.082966 0.446290 0.089254 100 100 255
-0.010555 0.084453 0.244108 100 100 255
0.120486 -0.094069 0.229616 100 100 255
0.164759 0.003447 0.073302 100 100 255
-0.061772 -0.028484 -0.192827 100 100 255
0.025043 0.110160 -0.135376 100 100 255
0.266284 0.195351 -0.027818 100 100 255
0.142303 0.375059 0.025323 100 100 255
0.169264 -0.174259 0.252010 100 100 255
-0.029747 0.396949 -0.319505 100 100 255
-0.279364 -0.164798 0.338075 100 100 255
0.054594 0.007872 0.118805 100 100 255
-0.005245 -0.139249 0.172696 100 100 255
0.143267 -0.094830 0.013436 100 100 255
0.287266 -0.121617 0.056366 100 100 255
0.310966 0.004373 0.233977 100 100 255
0.428272 -0.132788 0.251135 100 100 255
-0.058658 0.042977 -0.054501 100 100 255
-0.282812 -0.247483 -0.246020 100 100 255
-0.119106 -0.125753 0.171922 100 100 255
-0.157163 -0.288188 -0.030620 100 100 255
0.136706 0.335991 0.461694 100 100 255
-0.574381 -0.037602 -0.120270 100 100 255
-0.173492 0.139851 -0.182008 100 100 255
0.215749 0.240384 -0.192698 100 100 255
0.003852 0.134600 -0.035115 100 100 255
0.248533 -0.090304 -0.049642 100 100 255
-0.189054 -0.018929 -0.257978 100 100 255
0.391522 0.226676 -0.371414 100 100 255
0.063008 0.158732 -0.026763 100 100 255
0.102161 -0.139393 0.239540 100 100 255
0.475053 0.398255 -0.298522 100 100 255
0.156292 0.186578 0.136667 100 100 255
0.253202 -0.006979 0.123318 100 100 255
0.006982 0.062628 -0.097442 100 100 255
-0.205034 -0.194891 -0.184923 100 100 255
0.053032 -0.091466 -0.079624 100 100 255
-0.224117 0.074252 -0.280697 100 100 255
0.093645 0.234950 -0.094324 100 100 255
-0.125010 -0.065250 0.089591 100 100 255
-0.002819 -0.021106 -0.033066 100 100 255
-0.240745 -0.019737 -0.291474 100 100 255
0.225608 0.134946 -0.260359 100 100 255
0.052943 0.248945 0.220342 100 100 255
0.230913 -0.022677 -0.258883 100 100 255
-0.129463 0.245307 -0.088906 100 100 255
-0.071718 -0.229541 0.306807 100 100 255
0.181867 0.034585 0.409593 100 100 255
0.176544 0.037622 -0.025922 100 100 255
0.088096 -0.148916 0.814810 100 100 255
0.142805 0.062403 -0.204789 100 100 255
0.258556 0.323048 0.050251 100 100 255
-0.127671 -0.067021 -0.308548 100 100 255
0.470102 0.520855 0.090998 100 100 255
0.124596 0.117949 -0.016847 100 100 255
0.040687 -0.218080 -0.104017 100 100 255
-0.002487 -0.375844 -0.013777 100 100 255
-0.090442 -0.089980 0.270681 100 100 255
0.193724 -0.006317 -0.201723 100 100 255
0.142162 0.111018 0.358399 100 100 255
0.172730 0.234978 -0.102740 100 100 255
0.286289 0.368024 0.240487 100 100 255
-0.326397 0.150016 -0.146277 100 100 255
-0.284085 0.265327 0.319629 100 100 255
0.258127 0.229795 -0.276837 100 100 255
0.051558 0.006849 -0.016601 100 100 255
-0.055153 -0.241764 -0.144951 100 100 255
-0.151020 -0.206014 -0.116114 100 100 255
0.555329 0.143666 0.087164 100 100 255
-0.135400 0.104622 0.100191 100 100 255
-0.179904 0.069363 0.085647 100 100 255
0.006215 0.335208 -0.075101 100 100 255
-0.192094 0.378117 0.092127 100 100 255
-0.050017 0.273343 0.097001 100 100 255
0.368636 -0.154251 0.053117 100 100 255
0.210005 -0.084656 -0.067298 100 100 255
-0.141185 -0.084344 -0.015272 100 100 255
0.305516 -0.065254 0.245230 100 100 255
0.428409 0.434635 0.009323 100 100 255
-0.183789 0.078416 0.085745 100 100 255
-0.524974 0.185692 -0.204468 100 100 255
0.058039 0.083217 0.027014 100 100 255
0.060206 0.128145 0.180265 100 100 255
0.412000 -0.231760 0.043209 100 100 255
0.207019 0.138167 -0.035648 100 100 255
-0.181009 -0.254849 0.105409 100 100 255
0.160149 0.211046 -0.021373 100 100 255
0.047193 -0.142625 -0.008007 100 100 255
-0.507015 -0.028267 0.088821 100 100 255
0.078665 -0.061282 0.341970 100 100 255
-0.172044 0.252446 0.034061 100 100 255
0.067104 0.119027 0.287973 100 100 255
0.173013 -0.277164 0.010376 100 100 255
-0.033504 0.024376 -0.117105 100 100 255
0.011127 -0.062366 -0.124973 100 100 255
0.063591 0.157599 0.399648 100 100 255
0.498481 -0.231577 -0.092992 100 100 255
-0.068832 -0.037099 -0.291801 100 100 255
-0.001239 -0.141113 0.225705 100 100 255
0.136165 0.075632 0.292407 100 100 255
0.534683 -0.078778 -0.065070 100 100 255
-0.028281 -0.304015 0.245933 100 100 255
0.224549 -0.329110 -0.175553 100 100 255
-0.192520 0.062158 -0.020757 100 100 255
-0.268632 0.080678 0.042357 100 100 255
-0.390873 0.004465 0.118408 100 100 255
0.082486 0.238026 -0.160633 100 100 255
-0.492937 -0.108462 0.117251 100 100 255
-0.181191 -0.002624 -0.409620 100 100 255
0.232390 -0.067717 0.162755 100 100 255
0.395563 -0.050916 -0.039669 100 100 255
0.012041 -0.159366 0.197606 100 100 255
0.051963 -0.249961 0.041227 100 100 255
0.205134 -0.076217 0.005619 100 100 255
0.515521 -0.383361 0.107729 100 100 255
0.164117 0.058058 -0.020362 100 100 255
0.294794 0.239563 0.091683 100 100 255
0.024420 0.038985 0.073667 100 100 255
-0.237803 0.305378 -0.129941 100 100 255
0.054632 0.254587 -0.010783 100 100 255
0.136093 0.000662 -0.407619 100 100 255
0.143465 -0.202643 -0.082611 100 100 255
-0.070272 -0.134908 -0.036174 100 100 255
-0.014567 -0.004045 0.152869 100 100 255
0.278302 0.064614 0.504258 100 100 255
-0.001015 0.111024 0.033072 100 100 255
0.213013 -0.284133 -0.376359 100 100 255
-0.372648 -0.211730 -0.006368 100 100 255
0.031205 0.118827 0.096152 100 100 255
-0.050484 0.072054 0.250853 100 100 255
0.095185 -0.092289 -0.399671 100 100 255
0.024204 0.188048 0.004356 100 100 255
0.270102 -0.088924 0.141068 100 100 255
-0.063294 0.128640 0.162417 100 100 255
0.146893 -0.196290 0.217493 100 100 255
0.477479 0.258350 -0.007075 100 100 255
0.089233 0.053583 0.399914 100 100 255
0.202645 0.203311 -0.229932 100 100 255
-0.394043 0.105648 -0.133911 100 100 255
0.192731 0.395357 -0.238508 100 100 255
0.354059 0.114747 0.094549 100 100 255
-0.104100 -0.196084 0.046847 100 100 255
0.038483 -0.101615 0.045443 100 100 255
0.008880 -0.214368 0.109420 100 100 255
0.193013 -0.231093 -0.228721 100 100 255
0.046428 -0.275866 -0.317625 100 100 255
-0.350775 -0.177286 0.088723 100 100 255
-0.077851 -0.220555 0.073669 100 100 255
-0.372071 0.076053 0.186968 100 100 255
-0.061526 0.076991 -0.199144 100 100 255
0.327866 -0.186404 0.071127 100 100 255
-0.151950 0.425294 -0.285918 100 100 255
0.427489 0.027801 0.130483 100 100 255
-0.316552 0.013415 0.270678 100 100 255
-0.043475 0.150067 0.100338 100 100 255
-0.132071 -0.270741 -0.139661 100 100 255
-0.394565 0.096932 -0.273444 100 100 255
0.088776 -0.254292 -0.122652 100 100 255
-0.276150 0.049325 -0.224091 100 100 255
0.143859 -0.187053 -0.001669 100 100 255
-0.077105 -0.010289 0.310583 100 100 255
0.483826 0.068523 -0.335860 100 100 255
-0.093460 0.220766 -0.150428 100 100 255
0.164745 0.167245 -0.325861 100 100 255
0.282044 0.280457 0.206906 100 100 255
0.326592 0.304871 0.105333 100 100 255
-0.020431 0.038355 0.113322 100 100 255
-0.006797 -0.113807 -0.462922 100 100 255
-0.077779 0.038498 0.073881 100 100 255
0.122822 -0.245805 0.026320 100 100 255
-0.089721 0.322588 -0.311469 100 100 255
0.340146 -0.137483 0.043279 100 100 255
-0.084519 -0.229491 -0.207953 100 100 255
0.100245 -0.107926 -0.200306 100 100 255
-0.272790 0.055396 -0.007330 100 100 255
0.028324 0.029735 0.088923 100 100 255
-0.019245 0.047396 0.039264 100 100 255
0.189166 0.516381 0.157111 100 100 255
-0.117265 -0.020394 0.178175 100 100 255
-0.194087 -0.166436 -0.476087 100 100 255
0.172091 0.144281 -0.136551 100 100 255
-0.255731 -0.137923 -0.071491 100 100 255
0.081590 0.340487 0.043679 100 100 255
0.278196 0.049879 0.147171 100 100 255
0.231268 -0.335641 -0.412776 100 100 255
-0.089604 -0.124258 0.311107 100 100 255
-0.264188 -0.180542 -0.220974 100 100 255
0.104820 -0.221174 0.219077 100 100 255
0.055532 0.311199 0.110731 100 100 255
-0.121497 0.226938 -0.304984 100 100 255
0.310106 0.039594 -0.169384 100 100 255
-0.287012 0.117006 0.191997 100 100 255
0.098042 0.102327 -0.078952 100 100 255
-0.033156 -0.275090 0.072491 100 100 255
0.245524 -0.116315 -0.067865 100 100 255
0.211853 -0.090618 -0.071356 100 100 255
-0.143452 0.485846 -0.056651 100 100 255
0.338017 0.112475 -0.284259 100 100 255
-0.136880 -0.441320 0.348506 100 100 255
-0.147626 0.103121 0.210148 100 100 255
0.502822 -0.350473 0.301071 100 100 255
0.463241 0.208376 0.043452 100 100 255
-0.297315 -0.034212 0.085303 100 100 255
-0.295308 -0.077865 0.289937 100 100 255
0.424841 0.225706 0.266001 100 100 255
-0.200321 -0.502257 -0.113178 100 100 255
-0.015393 0.165094 -0.097413 100 100 255
0.382817 -0.176543 0.215215 100 100 255
-0.204434 -0.145080 -0.031559 100 100 255
0.165258 -0.024581 -0.052097 100 100 255
-0.055420 0.107908 0.367409 100 100 255
-0.075016 0.529609 0.246227 100 100 255
0.004031 -0.011195 -0.074062 100 100 255
0.160519 0.124050 0.288940 100 100 255
0.072442 -0.137223 -0.232699 100 100 255
-0.632554 0.183922 0.242049 100 100 255
0.153359 0.130229 0.052096 100 100 255
0.287406 0.083968 -0.415167 100 100 255
-0.312212 -0.191934 0.175045 100 100 255
-0.251926 -0.143035 0.028395 100 100 255
0.186534 -0.222631 0.021015 100 100 255
-0.015156 -0.448726 0.134141 100 100 255
0.223290 0.361789 -0.215716 100 100 255
0.019816 0.227356 -0.219228 100 100 255
-0.265689 0.252047 -0.075209 100 100 255
0.191800 -0.257585 -0.140915 100 100 255
0.124647 0.146804 0.233512 100 100 255
0.161672 -0.612218 0.134135 100 100 255
0.008526 -0.439901 -0.104856 100 100 255
-0.288011 0.048649 0.352484 100 100 255
0.038472 -0.122910 0.069508 100 100 255
0.065066 -0.154665 -0.389705 100 100 255
-0.067452 -0.531605 -0.179195 100 100 255
-0.047292 -0.102208 0.316949 100 100 255
-0.098793 -0.070404 -0.184851 100 100 255
-0.120425 0.009893 -0.280657 100 100 255
-0.236703 0.329925 -0.153008 100 100 255
-0.406749 0.192692 -0.391413 100 100 255
-0.138323 0.123918 -0.451239 100 100 255
-0.193200 0.008734 -0.225042 100 100 255
0.123887 0.338351 0.146939 100 100 255
-0.196499 0.206712 -0.246413 100 100 255
-0.383114 -0.108986 0.146290 100 100 255
0.357638 -0.476062 0.137235 100 100 255
0.027850 -0.164273 -0.369314 100 100 255
-0.080439 -0.171440 0.190170 100 100 255
-0.077908 0.164985 -0.159538 100 100 255
0.133674 0.357107 0.023699 100 100 255
-0.408591 -0.350141 -0.023566 100 100 255
0.228192 -0.240632 -0.041753 100 100 255
0.266301 0.166811 0.011090 100 100 255
-0.023497 0.123475 0.372028 100 100 255
-0.173981 0.145884 -0.055381 100 100 255
-0.146096 0.080774 0.006788 100 100 255
-0.288949 -0.047448 0.173431 100 100 255
0.253461 -0.019413 -0.060895 100 100 255
-0.262394 0.136413 -0.479310 100 100 255
0.032688 -0.068072 0.124108 100 100 255
0.247111 -0.066818 0.133867 100 100 255
-0.251276 -0.036451 -0.300482 100 100 255
0.181031 0.083754 0.032674 100 100 255
-0.140168 0.333428 0.002046 100 100 255
0.007159 -0.021771 0.268179 100 100 255
0.041479 0.278195 0.245758 100 100 255
0.234829 -0.166786 -0.235349 100 100 255
0.387959 0.270452 -0.072728 100 100 255
0.102130 0.174516 -0.242270 100 100 255
0.317474 0.254395 0.343055 100 100 255
-0.585892 -0.125498 0.239768 100 100 255
0.104209 0.034737 -0.515350 100 100 255
-0.126263 -0.218248 -0.054949 100 100 255
-0.132212 0.110981 -0.011432 100 100 255
0.158828 0.070591 0.134372 100 100 255
0.347858 0.370946 -0.507909 100 100 255
-0.229055 0.241473 -0.041716 100 100 255
-0.017907 0.216017 -0.286264 100 100 255
-0.098481 0.232169 0.192060 100 100 255
0.007748 0.332116 -0.373492 100 100 255
0.034048 0.104819 -0.076349 100 100 255
-0.122490 -0.216835 -0.335756 100 100 255
-0.224173 -0.266189 0.111250 100 100 255
-0.282156 0.189409 -0.150677 100 100 255
0.042867 0.115244 0.216377 100 100 255
0.331902 0.078672 -0.002360 100 100 255
-0.243408 -0.159387 -0.167915 100 100 255
0.046417 -0.510589 0.167225 100 100 255
0.147084 -0.172831 -0.243445 100 100 255
0.097659 0.171487 0.518132 100 100 255
0.083944 -0.073466 0.238332 100 100 255
-0.023543 -0.164746 0.000007 100 100 255
-0.129925 -0.287713 -0.117621 100 100 255
0.071978 -0.079968 -0.135224 100 100 255
-0.116219 -0.254638 -0.083015 100 100 255
0.063482 0.124201 0.168255 100 100 255
-0.392071 -0.361084 0.211922 100 100 255
-0.030777 -0.006996 -0.171551 100 100 255
0.196516 -0.164542 0.040492 100 100 255
0.260103 -0.047097 0.227147 100 100 255
0.118159 0.578802 -0.082946 100 100 255
-0.266926 0.480143 -0.031100 100 100 255
0.261768 -0.423570 0.061841 100 100 255
0.042879 -0.177446 -0.213578 100 100 255
-0.515279 0.120482 0.170889 100 100 255
0.239943 0.426401 -0.002820 100 100 255
0.215428 0.434658 0.251208 100 100 255
0.159679 0.359505 0.196981 100 100 255
-0.195464 0.246191 -0.260809 100 100 255
0.071344 0.001269 -0.016052 100 100 255
0.057507 -0.408324 0.169191 100 100 255
-0.257324 0.287719 -0.158047 100 100 255
0.343306 -0.135837 -0.131404 100 100 255
-0.138730 -0.007526 -0.033993 100 100 255
0.163653 0.051087 -0.266785 100 100 255
-0.004694 -0.027146 0.187039 100 100 255
0.150058 0.094707 -0.264957 100 100 255
0.304603 -0.438605 0.076926 100 100 255
0.329668 -0.167192 -0.208138 100 100 255
0.177602 0.026612 -0.516697 100 100 255
0.013060 -0.566418 0.282961 100 100 255
0.080471 0.090855 -0.159214 100 100 255
0.073338 0.216751 -0.284262 100 100 255
0.279741 -0.050049 0.283452 100 100 255
-0.402758 0.449057 0.062232 100 100 255
0.103896 0.068878 0.083708 100 100 255
-0.316042 -0.316355 -0.184215 100 100 255
-0.125906 -0.410108 -0.140583 100 100 255
-0.070815 -0.236000 -0.023972 100 100 255
0.295431 -0.136572 -0.327098 100 100 255
0.299663 -0.472212 -0.067849 100 100 255
0.002899 0.089864 0.125287 100 100 255
-0.088587 -0.038436 -0.068398 100 100 255
0.149927 0.020243 -0.230874 100 100 255
-0.020347 0.051804 -0.139837 100 100 255
0.083997 0.287530 -0.038932 100 100 255
-0.172656 0.306029 -0.038045 100 100 255
-0.167956 0.410246 0.300526 100 100 255
0.104005 -0.324702 -0.028303 100 100 255
0.244826 0.152371 -0.098591 100 100 255
0.358147 -0.132433 -0.201593 100 100 255
0.383299 -0.033645 -0.299265 100 100 255
-0.048491 0.093224 -0.073446 100 100 255
-0.075010 0.146938 0.329430 100 100 255
0.097776 0.327595 -0.164703 100 100 255
-0.175833 0.225463 -0.406784 100 100 255
-0.107170 0.012472 0.342004 100 100 255
-0.391970 0.063162 0.134898 100 100 255
0.097176 -0.032878 0.216015 100 100 255
0.102539 -0.222226 0.005189 100 100 255
0.053170 -0.095417 -0.109130 100 100 255
0.398323 0.178361 -0.065054 100 100 255
-0.030721 -0.415578 -0.029904 100 100 255
0.276255 -0.320305 -0.081300 100 100 255
0.058083 -0.045044 0.185563 100 100 255
-0.032052 -0.083858 -0.106314 100 100 255
-0.395661 0.249020 -0.032402 100 100 255
-0.031524 -0.080337 0.077286 100 100 255
0.006211 0.024526 0.115553 100 100 255
0.050419 0.203325 -0.178483 100 100 255
-0.505988 0.256550 -0.210149 100 100 255
0.065938 0.091827 0.197820 100 100 255
0.012266 -0.217228 0.047655 100 100 255
0.052591 0.114365 -0.039805 100 100 255
-0.238121 -0.199174 -0.066435 100 100 255
-0.427589 -0.240572 0.359566 100 100 255
0.156261 0.085635 0.161492 100 100 255
0.067983 0.123974 -0.038138 100 100 255
0.313764 -0.197830 0.374800 100 100 255
0.187975 -0.265544 -0.245173 100 100 255
0.158493 0.192969 -0.010036 100 100 255
-0.097777 -0.072604 -0.128169 100 100 255
0.194486 -0.010714 0.052120 100 100 255
-0.019479 -0.227675 0.395383 100 100 255
0.625706 0.067824 0.112071 100 100 255
0.134604 -0.036979 0.003336 100 100 255
0.019549 -0.009950 -0.180594 100 100 255
-0.084015 -0.142965 0.086006 100 100 255
0.505192 -0.209315 -0.044965 100 100 255
0.099417 -0.119527 -0.261906 100 100 255
-0.057585 0.112131 -0.223226 100 100 255
-0.278244 -0.090236 -0.137766 100 100 255
0.190251 -0.255417 -0.270897 100 100 255
0.366475 -0.053909 0.221071 100 100 255
0.087324 0.154591 0.026204 100 100 255
-0.028158 0.081366 0.257542 100 100 255
-0.133222 -0.422053 0.073941 100 100 255
0.467282 0.076145 -0.657119 100 100 255
0.003653 -0.001762 0.017187 100 100 255
0.078652 0.282677 -0.065812 100 100 255
-0.222601 -0.225702 0.383861 100 100 255
0.157217 -0.246925 0.274550 100 100 255
0.247288 -0.196382 0.126945 100 100 255
-0.106949 0.048209 -0.278872 100 100 255
-0.004906 -0.118883 0.165185 100 100 255
0.207371 -0.135392 -0.255102 100 100 255
0.165824 -0.181327 -0.123108 100 100 255
0.412809 -0.212708 0.189824 100 100 255
0.391625 -0.243190 0.076954 100 100 255
-0.079047 -0.052927 0.201021 100 100 255
0.132881 -0.308950 -0.117177 100 100 255
0.185324 -0.115575 0.195016 100 100 255
0.571272 0.043460 -0.298922 100 100 255
-0.098200 -0.100419 -0.196753 100 100 255
-0.108811 -0.293797 -0.091762 100 100 255
0.117162 0.111428 -0.164515 100 100 255
0.221550 -0.049773 -0.395153 100 100 255
-0.228374 -0.051514 0.208898 100 100 255
0.224617 -0.190096 0.081572 100 100 255
-0.000670 0.135801 -0.236781 100 100 255
0.127640 -0.385938 0.043259 100 100 255
0.001323 -0.078924 -0.190140 100 100 255
0.006527 0.436306 -0.339623 100 100 255
0.482119 0.050708 -0.090789 100 100 255
-0.236936 -0.107258 -0.206276 100 100 255
0.093547 0.233312 -0.205823 100 100 255
0.149672 0.063276 -0.122562 100 100 255
0.066008 -0.063194 -0.176484 100 100 255
-0.008664 -0.138905 0.417611 100 100 255
-0.044553 -0.072727 -0.177231 100 100 255
-0.007100 -0.159763 -0.032252 100 100 255
-0.074752 0.286692 0.012179 100 100 255
0.105291 0.178214 -0.156702 100 100 255
0.261069 -0.151009 -0.134006 100 100 255
0.162879 -0.476357 0.017197 100 100 255
-0.263616 0.181265 -0.305446 100 100 255
-0.397976 -0.359374 -0.000274 100 100 255
0.153805 -0.380034 0.004624 100 100 255
-0.162422 -0.174420 0.284013 100 100 255
0.084313 -0.217179 0.315678 100 100 255
0.084622 -0.066073 -0.199358 100 100 255
0.104649 -0.098213 0.270274 100 100 255
-0.119254 -0.173234 0.261351 100 100 255
-0.106421 -0.208586 -0.233119 100 100 255
-0.318626 -0.033795 -0.207527 100 100 255
-0.262780 -0.121675 -0.108152 100 100 255
-0.037672 0.108102 -0.179220 100 100 255
-0.164463 0.004696 0.204848 100 100 255
-0.049214 0.102938 0.045348 100 100 255
0.230427 -0.220229 0.540243 100 100 255
0.062116 -0.202206 0.232842 100 100 255
-0.203245 -0.240388 -0.043783 100 100 255
-0.266286 0.008298 0.227248 100 100 255
0.092894 0.152090 -0.263640 100 100 255
0.076312 -0.069705 0.123559 100 100 255
0.055402 0.127685 -0.253952 100 100 255
0.025578 0.010057 -0.073807 100 100 255
-0.212550 0.149047 -0.094944 100 100 255
-0.130381 -0.512768 -0.066186 100 100 255
-0.235945 0.129918 0.070580 100 100 255
-0.037981 -0.069574 0.161358 100 100 255
-0.001251 0.039974 0.145799 100 100 255
0.005426 -0.221629 -0.053947 100 100 255
-0.122302 -0.211280 -0.158135 100 100 255
-0.592238 -0.389016 -0.110804 100 100 255
0.057116 0.009416 -0.023585 100 100 255
-0.431485 0.137839 0.336945 100 100 255
-0.076192 -0.229837 -0.538122 100 100 255
0.088782 0.043409 0.082336 100 100 255
-0.004169 0.250625 0.439919 100 100 255
-0.088566 0.181943 -0.149732 100 100 255
0.104824 0.082371 0.023456 100 100 255
-0.369930 0.334292 0.002361 100 100 255
0.069979 0.057366 0.182211 100 100 255
-0.038762 0.347612 -0.120474 100 100 255
-0.042766 0.043905 0.043923 100 100 255
-0.110318 0.260087 -0.232415 100 100 255
0.201196 0.582324 0.132579 100 100 255
0.052360 -0.259395 -0.094660 100 100 255
0.098227 0.156077 -0.105116 100 100 255
-0.121162 0.141742 0.233276 100 100 255
-0.301826 -0.099202 0.083013 100 100 255
-0.303104 -0.072035 0.244302 100 100 255
-0.310821 0.117611 -0.144444 100 100 255
0.111604 -0.178120 -0.162226 100 100 255
-0.027298 -0.292435 0.294452 100 100 255
-0.264427 -0.166735 0.043126 100 100 255
0.200800 0.015648 0.064909 100 100 255
-0.232902 -0.232100 0.211254 100 100 255
0.114306 0.302865 -0.238376 100 100 255
-0.060451 -0.029953 0.090148 100 100 255
