ply
format ascii 1.0
element vertex 1180
property float x
property float y
property float z
property uchar red
property uchar green
property uchar blue
end_header
0.043712 -0.140882 0.075095 100 100 255
0.171547 -0.077873 -0.009407 100 100 255
0.409914 -0.344220 0.111319 100 100 255
0.144384 0.008676 -0.024476 100 100 255
0.249417 0.219430 0.153410 100 100 255
0.067094 0.073498 0.024292 100 100 255
-0.242333 0.267036 -0.183580 100 100 255
0.090418 0.259557 0.030751 100 100 255
0.138614 0.050011 -0.342941 100 100 255
0.172873 -0.184418 -0.099858 100 100 255
-0.044784 -0.117912 -0.045067 100 100 255
-0.054321 -0.036224 0.129202 100 100 255
0.288253 0.051851 0.437090 100 100 255
0.023874 0.074438 0.037507 100 100 255
0.197336 -0.284638 -0.316200 100 100 255
-0.373411 -0.144022 0.007301 100 100 255
0.027328 0.135187 0.141713 100 100 255
-0.068395 0.055658 0.252520 100 100 255
0.066826 -0.115644 -0.325362 100 100 255
-0.016527 0.196228 0.017161 100 100 255
0.245483 -0.002527 0.107117 100 100 255
-0.045805 0.168155 0.127541 100 100 255
0.119118 -0.131005 0.177124 100 100 255
0.424184 0.204018 -0.029137 100 100 255
0.114663 0.048834 0.351912 100 100 255
0.236011 0.218287 -0.183302 100 100 255
-0.350628 0.108794 -0.083519 100 100 255
0.118967 0.292701 -0.233042 100 100 255
0.327380 0.158426 0.085135 100 100 255
-0.115630 -0.154998 0.024508 100 100 255
0.042373 -0.123593 0.061511 100 100 255
-0.006171 -0.218705 0.074220 100 100 255
0.160274 -0.219059 -0.173777 100 100 255
-0.002559 -0.195446 -0.270572 100 100 255
-0.307290 -0.127030 0.034968 100 100 255
-0.017104 -0.178473 0.086115 100 100 255
-0.314485 0.078457 0.152791 100 100 255
-0.009167 0.008789 -0.117830 100 100 255
0.339054 -0.157507 0.089177 100 100 255
-0.135694 0.335761 -0.251520 100 100 255
0.372679 0.018968 0.100294 100 100 255
-0.341106 0.097839 0.223536 100 100 255
-0.014939 0.151117 0.046699 100 100 255
-0.127935 -0.219194 -0.115158 100 100 255
-0.302869 0.095764 -0.202029 100 100 255
0.177583 -0.237859 -0.099466 100 100 255
-0.240501 0.024066 -0.147317 100 100 255
0.149086 -0.180879 -0.002528 100 100 255
-0.025901 -0.021581 0.210162 100 100 255
0.414191 0.035147 -0.325510 100 100 255
-0.109996 0.169172 -0.137062 100 100 255
0.178508 0.108312 -0.290944 100 100 255
0.245408 0.256941 0.172582 100 100 255
0.293239 0.215860 0.096417 100 100 255
-0.041176 0.049080 0.059359 100 100 255
0.012889 -0.095126 -0.418914 100 100 255
-0.063750 0.020445 -0.003410 100 100 255
0.107444 -0.202240 -0.015423 100 100 255
-0.153034 0.244301 -0.238546 100 100 255
0.352143 -0.054822 0.009590 100 100 255
-0.037795 -0.309134 -0.232213 100 100 255
0.123782 -0.080709 -0.187672 100 100 255
-0.245815 0.015158 -0.067426 100 100 255
0.055853 -0.011820 0.086801 100 100 255
0.036397 0.091337 0.066971 100 100 255
0.151812 0.435492 0.090409 100 100 255
-0.080909 -0.020522 0.157926 100 100 255
-0.192936 -0.111701 -0.461528 100 100 255
0.139934 0.111605 -0.175861 100 100 255
-0.202816 -0.165087 -0.130218 100 100 255
0.064989 0.309781 0.066411 100 100 255
0.264348 0.046440 0.074508 100 100 255
0.215091 -0.294369 -0.343639 100 100 255
-0.077152 -0.102962 0.286215 100 100 255
-0.257486 -0.145498 -0.166962 100 100 255
0.109289 -0.207242 0.220186 100 100 255
0.046616 0.262789 0.111789 100 100 255
-0.095831 0.166825 -0.228382 100 100 255
0.270758 0.041040 -0.166652 100 100 255
-0.273391 0.086148 0.142508 100 100 255
0.068046 0.019299 -0.069868 100 100 255
-0.056202 -0.259268 0.053360 100 100 255
0.250198 -0.129376 -0.040094 100 100 255
0.242363 -0.083835 0.004608 100 100 255
-0.147240 0.423306 -0.036712 100 100 255
0.323078 0.129940 -0.247590 100 100 255
-0.126689 -0.411295 0.262124 100 100 255
-0.095171 0.087059 0.166199 100 100 255
0.402805 -0.295451 0.221880 100 100 255
0.437912 0.125064 0.036904 100 100 255
-0.262918 0.012312 0.084430 100 100 255
-0.281204 -0.052329 0.299311 100 100 255
0.407995 0.215360 0.241245 100 100 255
-0.186980 -0.438738 -0.098710 100 100 255
0.092864 0.167531 -0.063365 100 100 255
0.306532 -0.139655 0.164527 100 100 255
-0.208974 -0.110854 0.041293 100 100 255
0.146099 0.000377 -0.006235 100 100 255
-0.018422 0.067867 0.326665 100 100 255
-0.098267 0.483170 0.248280 100 100 255
0.002708 0.025090 -0.058926 100 100 255
0.129466 0.108692 0.308935 100 100 255
0.073869 -0.105751 -0.197683 100 100 255
-0.558920 0.184538 0.218753 100 100 255
0.158459 0.083799 0.062836 100 100 255
0.199966 0.051249 -0.348981 100 100 255
-0.250313 -0.129561 0.176987 100 100 255
-0.217659 -0.076025 -0.010387 100 100 255
0.175032 -0.166027 0.042677 100 100 255
-0.067493 -0.450795 0.145441 100 100 255
0.159514 0.268510 -0.175882 100 100 255
0.033868 0.222558 -0.179436 100 100 255
-0.231890 0.261114 -0.089522 100 100 255
0.166631 -0.242084 -0.065727 100 100 255
0.154211 0.124030 0.191618 100 100 255
0.188499 -0.502213 0.175689 100 100 255
0.048531 -0.436452 -0.130263 100 100 255
-0.286815 0.010007 0.307185 100 100 255
0.068452 -0.131473 0.044588 100 100 255
0.030339 -0.146231 -0.339027 100 100 255
-0.030809 -0.476972 -0.139990 100 100 255
0.024668 -0.090013 0.301876 100 100 255
-0.089170 -0.048746 -0.098300 100 100 255
-0.057961 -0.016395 -0.256293 100 100 255
-0.178490 0.250465 -0.160121 100 100 255
-0.322109 0.171163 -0.342696 100 100 255
-0.108145 0.144348 -0.411642 100 100 255
-0.128761 -0.060179 -0.183766 100 100 255
0.106598 0.239065 0.091053 100 100 255
-0.169083 0.216651 -0.210657 100 100 255
-0.368274 -0.046165 0.110374 100 100 255
0.327365 -0.353844 0.077910 100 100 255
0.035015 -0.167609 -0.326151 100 100 255
-0.066689 -0.144644 0.137954 100 100 255
-0.055866 0.166650 -0.138504 100 100 255
0.140238 0.332212 -0.019427 100 100 255
-0.326358 -0.328919 -0.070748 100 100 255
0.222205 -0.215436 -0.066042 100 100 255
0.217166 0.196980 0.019359 100 100 255
-0.038242 0.124835 0.286851 100 100 255
-0.137364 0.149197 -0.028301 100 100 255
-0.145497 -0.016994 -0.010883 100 100 255
-0.266265 -0.077704 0.190582 100 100 255
0.174679 -0.052632 -0.058702 100 100 255
-0.226421 0.132569 -0.424625 100 100 255
0.059701 -0.038462 0.110756 100 100 255
0.195554 -0.034277 0.168052 100 100 255
-0.185790 -0.027818 -0.226802 100 100 255
0.178088 0.005708 -0.018067 100 100 255
-0.134239 0.291960 -0.048500 100 100 255
-0.039110 0.042188 0.215882 100 100 255
0.054479 0.237437 0.200745 100 100 255
0.199551 -0.148656 -0.255162 100 100 255
0.399445 0.215088 -0.091417 100 100 255
0.065821 0.194640 -0.218620 100 100 255
0.290495 0.183318 0.338070 100 100 255
-0.501421 -0.089425 0.231100 100 100 255
0.103457 0.004422 -0.416915 100 100 255
-0.143595 -0.216117 -0.018257 100 100 255
-0.157962 0.069570 -0.050092 100 100 255
0.130301 0.019212 0.098818 100 100 255
0.260262 0.346444 -0.431738 100 100 255
-0.134874 0.163524 -0.052963 100 100 255
0.010179 0.182415 -0.255694 100 100 255
-0.116367 0.214288 0.180712 100 100 255
-0.035810 0.324802 -0.307207 100 100 255
0.062606 0.130651 -0.002165 100 100 255
-0.117114 -0.218423 -0.300586 100 100 255
-0.151456 -0.251864 0.103771 100 100 255
-0.234852 0.163155 -0.100842 100 100 255
0.020565 0.089307 0.174365 100 100 255
0.266398 0.102610 -0.010320 100 100 255
-0.210397 -0.151463 -0.145855 100 100 255
0.038363 -0.481658 0.171427 100 100 255
0.120401 -0.161932 -0.209404 100 100 255
0.075149 0.130112 0.441372 100 100 255
0.122522 -0.040036 0.237201 100 100 255
-0.070229 -0.178924 -0.012914 100 100 255
-0.065847 -0.293350 -0.153042 100 100 255
0.033595 -0.086938 -0.103998 100 100 255
-0.073938 -0.191168 -0.078688 100 100 255
0.066335 0.110696 0.116547 100 100 255
-0.375399 -0.312526 0.150652 100 100 255
-0.003656 -0.010926 -0.146545 100 100 255
0.181772 -0.105074 0.048998 100 100 255
0.221218 0.004779 0.168854 100 100 255
0.121055 0.503787 -0.092486 100 100 255
-0.266904 0.428739 -0.062211 100 100 255
0.216066 -0.373951 0.039616 100 100 255
0.066428 -0.150976 -0.233930 100 100 255
-0.430075 0.088409 0.161264 100 100 255
0.207549 0.393404 0.011358 100 100 255
0.213677 0.346180 0.210411 100 100 255
0.160239 0.357658 0.168602 100 100 255
-0.182469 0.167491 -0.182267 100 100 255
0.036487 -0.004137 -0.052720 100 100 255
-0.013065 -0.345582 0.119725 100 100 255
-0.236395 0.280172 -0.147083 100 100 255
0.266467 -0.154138 -0.079899 100 100 255
-0.115441 0.009400 -0.042963 100 100 255
0.107822 0.051246 -0.232710 100 100 255
-0.027299 -0.025387 0.151528 100 100 255
0.107870 0.061142 -0.254681 100 100 255
0.211587 -0.343892 0.088895 100 100 255
0.297753 -0.134711 -0.142333 100 100 255
0.165365 0.013512 -0.512576 100 100 255
0.031099 -0.524000 0.259451 100 100 255
0.113947 0.122874 -0.161160 100 100 255
0.026125 0.132905 -0.299653 100 100 255
0.221947 0.002788 0.167809 100 100 255
-0.295831 0.441829 0.059936 100 100 255
0.089619 0.063015 0.095898 100 100 255
-0.334910 -0.238868 -0.140781 100 100 255
-0.077053 -0.371989 -0.097742 100 100 255
-0.059554 -0.220383 -0.020335 100 100 255
0.241749 -0.086569 -0.296962 100 100 255
0.273631 -0.410274 -0.163005 100 100 255
0.018487 0.067120 0.093464 100 100 255
-0.056941 -0.048978 -0.037560 100 100 255
0.114241 0.023575 -0.234351 100 100 255
-0.044548 0.034346 -0.124955 100 100 255
0.095598 0.239516 -0.000056 100 100 255
-0.111218 0.264886 -0.035324 100 100 255
-0.169752 0.347837 0.286315 100 100 255
0.103233 -0.307246 -0.053397 100 100 255
0.236101 0.197140 -0.096726 100 100 255
0.386857 -0.124685 -0.226499 100 100 255
0.357827 -0.062882 -0.244760 100 100 255
-0.030779 0.056728 -0.058224 100 100 255
-0.016861 0.122623 0.297772 100 100 255
0.157861 0.281689 -0.114802 100 100 255
-0.117086 0.207547 -0.372499 100 100 255
-0.098619 -0.081764 0.306019 100 100 255
-0.360831 0.052824 0.088817 100 100 255
0.140469 -0.051013 0.185147 100 100 255
0.098997 -0.170055 0.001449 100 100 255
0.038178 -0.106306 -0.127045 100 100 255
0.339131 0.176583 -0.053218 100 100 255
0.013723 -0.359441 0.049451 100 100 255
0.184748 -0.287743 -0.086076 100 100 255
0.055196 -0.077397 0.141351 100 100 255
-0.005175 -0.083216 -0.058412 100 100 255
-0.333944 0.282992 -0.039272 100 100 255
-0.003772 -0.114821 0.054144 100 100 255
-0.022297 0.009074 0.060552 100 100 255
0.016966 0.135499 -0.162277 100 100 255
-0.428816 0.180187 -0.168253 100 100 255
0.037459 0.095750 0.149146 100 100 255
-0.021863 -0.177930 0.059466 100 100 255
0.078836 0.079156 -0.054123 100 100 255
-0.183364 -0.189924 -0.062246 100 100 255
-0.360283 -0.187038 0.338009 100 100 255
0.187224 0.099574 0.135932 100 100 255
0.019172 0.145810 0.004283 100 100 255
0.247877 -0.125171 0.262192 100 100 255
0.144395 -0.216642 -0.192145 100 100 255
0.177939 0.253400 -0.015233 100 100 255
-0.067616 -0.038235 -0.062866 100 100 255
0.099427 0.044233 0.053337 100 100 255
0.005007 -0.225903 0.274830 100 100 255
0.558634 0.066526 0.066101 100 100 255
0.129630 -0.091552 0.021521 100 100 255
0.005852 -0.010687 -0.150477 100 100 255
-0.033623 -0.112598 0.106502 100 100 255
0.450812 -0.146205 -0.015047 100 100 255
0.105073 -0.106303 -0.241195 100 100 255
-0.044525 0.085037 -0.217763 100 100 255
-0.225129 -0.084945 -0.195186 100 100 255
0.168722 -0.205414 -0.239109 100 100 255
0.341428 -0.034103 0.166220 100 100 255
0.050312 0.136227 0.032559 100 100 255
-0.017223 0.047694 0.217130 100 100 255
-0.085726 -0.370833 0.075755 100 100 255
0.437166 0.069645 -0.514797 100 100 255
-0.034848 -0.018058 -0.008053 100 100 255
0.134252 0.274595 -0.034940 100 100 255
-0.154895 -0.226433 0.328677 100 100 255
0.138699 -0.263606 0.229534 100 100 255
0.206353 -0.184364 0.107609 100 100 255
-0.091053 0.019742 -0.256934 100 100 255
-0.046711 -0.065867 0.169136 100 100 255
0.164812 -0.129468 -0.219606 100 100 255
0.187744 -0.136707 -0.132588 100 100 255
0.304609 -0.189018 0.223652 100 100 255
0.383742 -0.161318 0.082432 100 100 255
-0.063363 -0.059918 0.195175 100 100 255
0.092837 -0.287777 -0.143483 100 100 255
0.162570 -0.034395 0.153134 100 100 255
0.522881 0.008131 -0.266804 100 100 255
-0.076011 -0.048225 -0.197946 100 100 255
-0.067307 -0.233831 -0.095622 100 100 255
0.094365 0.116867 -0.127614 100 100 255
0.212160 -0.077412 -0.327253 100 100 255
-0.203476 -0.022927 0.164072 100 100 255
0.175157 -0.138867 0.126897 100 100 255
-0.055157 0.165523 -0.215695 100 100 255
0.093504 -0.325059 0.040000 100 100 255
0.041327 -0.066701 -0.161271 100 100 255
0.061849 0.375336 -0.298356 100 100 255
0.452166 0.063048 -0.070748 100 100 255
-0.245402 -0.133118 -0.200451 100 100 255
0.153859 0.202630 -0.218557 100 100 255
0.142422 0.084406 -0.133190 100 100 255
0.092399 -0.045733 -0.208275 100 100 255
-0.032131 -0.110538 0.375250 100 100 255
-0.075049 -0.096089 -0.215586 100 100 255
0.043558 -0.068842 -0.011975 100 100 255
-0.068673 0.211422 0.033320 100 100 255
0.063946 0.187357 -0.185813 100 100 255
0.214532 -0.118163 -0.128332 100 100 255
0.119909 -0.416563 0.016993 100 100 255
-0.241604 0.128598 -0.301508 100 100 255
-0.318148 -0.325627 0.007474 100 100 255
0.163458 -0.292683 0.044445 100 100 255
-0.140112 -0.175191 0.286711 100 100 255
0.071379 -0.157357 0.274094 100 100 255
0.060504 -0.061655 -0.177245 100 100 255
0.063268 -0.119964 0.218521 100 100 255
-0.100333 -0.203300 0.235081 100 100 255
-0.140217 -0.125558 -0.239759 100 100 255
-0.319740 -0.024452 -0.196154 100 100 255
-0.283380 -0.056484 -0.110183 100 100 255
-0.039288 0.058536 -0.160619 100 100 255
-0.167961 0.020692 0.219530 100 100 255
-0.102623 0.097335 -0.023938 100 100 255
0.186317 -0.152282 0.483459 100 100 255
0.106962 -0.163192 0.160503 100 100 255
-0.220640 -0.170885 -0.090373 100 100 255
-0.234944 0.028507 0.199294 100 100 255
0.146077 0.137595 -0.205037 100 100 255
0.046564 -0.031525 0.109837 100 100 255
0.083002 0.057485 -0.240628 100 100 255
-0.001576 0.009966 -0.080812 100 100 255
-0.180714 0.144070 -0.074472 100 100 255
-0.077815 -0.430810 -0.062842 100 100 255
-0.132875 0.106580 0.021211 100 100 255
-0.017235 -0.023852 0.170778 100 100 255
-0.018221 0.059940 0.169844 100 100 255
0.004714 -0.167752 0.001959 100 100 255
-0.169494 -0.119309 -0.153862 100 100 255
-0.517484 -0.328962 -0.108800 100 100 255
0.035360 0.008779 -0.002544 100 100 255
-0.436540 0.136500 0.310718 100 100 255
-0.061028 -0.225057 -0.475323 100 100 255
0.075840 0.024645 0.081251 100 100 255
-0.007208 0.171472 0.390948 100 100 255
-0.060971 0.143529 -0.064510 100 100 255
0.102103 0.044561 0.065024 100 100 255
-0.319610 0.273317 0.004146 100 100 255
0.068851 0.024353 0.184250 100 100 255
0.007729 0.259104 -0.124004 100 100 255
-0.063028 -0.012384 0.049288 100 100 255
-0.104660 0.208638 -0.173486 100 100 255
0.151308 0.533673 0.159231 100 100 255
0.026272 -0.286529 -0.064887 100 100 255
0.079213 0.161077 -0.043301 100 100 255
-0.102792 0.140903 0.235581 100 100 255
-0.254062 -0.099808 0.091712 100 100 255
-0.265072 -0.088251 0.282592 100 100 255
-0.246701 0.075722 -0.153014 100 100 255
0.117609 -0.167165 -0.129681 100 100 255
-0.058325 -0.300646 0.221519 100 100 255
-0.219329 -0.218870 0.056288 100 100 255
0.156560 -0.012752 0.093089 100 100 255
-0.186391 -0.192597 0.217732 100 100 255
0.116254 0.260032 -0.230643 100 100 255
-0.032593 -0.014399 0.095806 100 100 255
-0.047997 0.218902 0.371459 100 100 255
-0.012182 0.087325 0.061437 100 100 255
0.007059 -0.120960 0.030898 100 100 255
0.363484 -0.202273 -0.029972 100 100 255
0.009231 -0.130785 -0.068516 100 100 255
-0.100470 -0.399579 -0.143811 100 100 255
-0.192008 -0.025458 0.037780 100 100 255
-0.023552 0.025394 0.163480 100 100 255
0.107538 -0.347808 0.338760 100 100 255
-0.027005 0.064355 0.267743 100 100 255
0.385950 -0.117455 0.014516 100 100 255
0.201396 -0.093033 0.010130 100 100 255
-0.005303 -0.232046 -0.154322 100 100 255
-0.139793 -0.108294 0.434541 100 100 255
-0.086270 -0.010076 -0.058743 100 100 255
0.264999 -0.315687 0.110801 100 100 255
-0.163465 -0.232963 -0.087820 100 100 255
-0.142462 0.035864 0.231226 100 100 255
0.167389 0.054506 -0.006064 100 100 255
-0.164675 0.007142 0.036820 100 100 255
0.262413 -0.051422 0.378928 100 100 255
0.160495 0.166866 -0.066612 100 100 255
-0.216305 -0.320634 0.183133 100 100 255
0.132716 -0.126242 0.286688 100 100 255
-0.357233 0.067773 -0.211516 100 100 255
0.177906 -0.129977 0.002437 100 100 255
-0.041801 0.033846 0.007473 100 100 255
0.222384 -0.062218 -0.208611 100 100 255
0.031823 -0.481531 0.203690 100 100 255
0.323009 -0.116726 -0.018233 100 100 255
-0.201566 0.079762 -0.250627 100 100 255
0.208974 -0.345821 0.028314 100 100 255
-0.609175 0.039546 0.108101 100 100 255
-0.271052 -0.213839 -0.213491 100 100 255
-0.115478 0.158215 0.204057 100 100 255
-0.134883 -0.354019 -0.277012 100 100 255
0.241326 -0.019062 -0.106484 100 100 255
0.337563 0.040336 0.050638 100 100 255
-0.067535 0.052797 0.133584 100 100 255
-0.133982 -0.384076 0.085607 100 100 255
-0.038805 0.120559 0.102106 100 100 255
-0.173416 -0.023246 -0.090230 100 100 255
-0.043086 0.062611 0.191579 100 100 255
-0.022356 -0.469799 0.002561 100 100 255
-0.071245 0.305662 0.194592 100 100 255
-0.003483 0.202270 0.320888 100 100 255
0.014158 0.234086 0.047558 100 100 255
-0.199352 -0.119622 -0.017665 100 100 255
0.112070 -0.094407 -0.029795 100 100 255
0.258140 0.339403 -0.125974 100 100 255
-0.118908 -0.084220 -0.042407 100 100 255
-0.012306 0.294031 0.202123 100 100 255
-0.140448 0.089159 0.176209 100 100 255
-0.001047 -0.138633 -0.000894 100 100 255
0.051998 -0.223400 0.074893 100 100 255
-0.010787 -0.348610 0.179648 100 100 255
-0.085047 0.120371 0.115747 100 100 255
-0.037594 0.022897 0.140075 100 100 255
-0.039314 -0.133952 -0.028756 100 100 255
0.273676 -0.270866 0.105086 100 100 255
0.245654 -0.298779 -0.101933 100 100 255
-0.026119 0.130321 -0.027516 100 100 255
-0.133599 -0.002143 0.167811 100 100 255
-0.038412 -0.137528 0.071701 100 100 255
-0.040598 0.047506 -0.165360 100 100 255
-0.080928 -0.083362 0.010382 100 100 255
0.288589 -0.322350 0.099300 100 100 255
0.090704 0.002303 -0.289534 100 100 255
0.089068 -0.270881 0.180490 100 100 255
0.026859 -0.101953 0.123519 100 100 255
0.037486 0.085246 0.160114 100 100 255
0.162971 -0.189080 0.102222 100 100 255
-0.088824 -0.015735 -0.025776 100 100 255
0.190972 0.297168 0.142211 100 100 255
-0.100095 -0.268948 0.082799 100 100 255
0.235506 0.080637 0.281993 100 100 255
-0.145128 -0.121218 0.087481 100 100 255
-0.041046 0.026628 0.193500 100 100 255
0.231519 -0.306926 0.044537 100 100 255
0.307940 0.239065 0.097574 100 100 255
0.028802 -0.090054 0.015052 100 100 255
0.113485 -0.071770 0.166249 100 100 255
0.298420 -0.151712 0.041517 100 100 255
-0.077649 -0.026783 0.319866 100 100 255
-0.211015 -0.008745 -0.012137 100 100 255
-0.203708 0.307968 -0.007829 100 100 255
-0.056900 0.073432 -0.264528 100 100 255
-0.084227 0.314382 -0.148722 100 100 255
-0.245938 -0.013198 0.128214 100 100 255
-0.244461 0.491093 -0.053098 100 100 255
-0.153976 0.059384 0.322457 100 100 255
-0.039710 -0.232598 0.221855 100 100 255
0.284665 0.292417 -0.067549 100 100 255
0.189307 -0.103638 0.041666 100 100 255
0.470648 -0.246676 0.084403 100 100 255
0.025931 -0.011467 -0.179441 100 100 255
0.218317 0.082947 0.182760 100 100 255
-0.155383 -0.018373 -0.112362 100 100 255
0.025928 0.176634 -0.154659 100 100 255
0.009993 0.092118 0.173899 100 100 255
0.172592 -0.060994 0.250198 100 100 255
-0.221728 0.130221 -0.054555 100 100 255
-0.143807 -0.240364 -0.020113 100 100 255
-0.183305 0.090605 0.021175 100 100 255
0.067024 -0.031005 0.145836 100 100 255
-0.137328 0.285795 -0.062568 100 100 255
0.102614 0.031301 -0.038582 100 100 255
-0.079027 0.031254 -0.247817 100 100 255
0.061425 0.110923 -0.141402 100 100 255
-0.544400 0.231921 0.149524 100 100 255
-0.166486 0.002209 -0.068146 100 100 255
-0.449059 0.034492 0.259667 100 100 255
0.286378 0.233889 -0.150044 100 100 255
-0.139977 0.054033 -0.010733 100 100 255
0.125603 -0.172923 -0.416428 100 100 255
-0.083778 -0.085525 0.106331 100 100 255
0.121306 0.032683 -0.064032 100 100 255
-0.009617 -0.029237 0.011938 100 100 255
0.105520 -0.068066 -0.065524 100 100 255
0.016410 0.037519 0.024577 100 100 255
-0.064129 0.026818 -0.006461 100 100 255
0.038097 0.012726 -0.364225 100 100 255
-0.139615 -0.196504 0.202704 100 100 255
-0.192952 -0.085064 -0.075727 100 100 255
0.024470 -0.283916 -0.099464 100 100 255
-0.274392 -0.188335 0.174713 100 100 255
-0.012798 0.047975 0.038225 100 100 255
0.028984 0.044227 0.077857 100 100 255
0.082615 0.187092 0.033661 100 100 255
-0.015727 -0.148599 0.218783 100 100 255
0.083217 -0.068690 0.125276 100 100 255
0.058980 0.249143 -0.199783 100 100 255
-0.317971 0.271400 0.173341 100 100 255
0.263646 0.263238 0.346779 100 100 255
-0.152936 -0.080283 0.036855 100 100 255
0.109868 0.064887 0.333303 100 100 255
0.176347 -0.230683 0.089145 100 100 255
0.388294 0.192150 -0.118195 100 100 255
-0.162753 -0.039243 0.233216 100 100 255
0.208556 0.242466 -0.134897 100 100 255
0.257621 0.151375 0.071571 100 100 255
0.111189 -0.163382 -0.246669 100 100 255
-0.389570 -0.264233 0.311642 100 100 255
-0.219137 0.298114 -0.004237 100 100 255
-0.062218 -0.290941 -0.135576 100 100 255
-0.124955 -0.267126 -0.125043 100 100 255
-0.180915 -0.403828 0.015484 100 100 255
-0.039418 -0.458533 0.012783 100 100 255
0.292485 0.222516 0.267543 100 100 255
0.080133 -0.104763 -0.098915 100 100 255
0.059383 -0.026641 -0.038092 100 100 255
0.274028 -0.068144 0.127353 100 100 255
0.030279 0.006437 0.211609 100 100 255
0.056612 -0.141936 -0.181458 100 100 255
0.268523 -0.341640 -0.113524 100 100 255
0.117438 -0.046921 -0.123145 100 100 255
0.052272 -0.069963 -0.047146 100 100 255
-0.106091 -0.094937 0.004188 100 100 255
-0.153231 0.240174 -0.045384 100 100 255
0.213087 0.221134 -0.083396 100 100 255
-0.003680 0.110122 0.218595 100 100 255
-0.354418 -0.099492 -0.059763 100 100 255
0.044298 -0.212126 -0.266790 100 100 255
-0.059974 0.274259 -0.004712 100 100 255
-0.182532 0.376338 -0.212041 100 100 255
-0.162893 0.188675 0.022897 100 100 255
-0.164480 -0.239776 -0.226893 100 100 255
-0.300097 0.046674 -0.035097 100 100 255
-0.045045 0.249632 -0.084360 100 100 255
-0.107676 0.115182 0.078965 100 100 255
-0.072848 0.117406 -0.187650 100 100 255
-0.045523 0.534661 -0.067791 100 100 255
-0.144093 0.461430 0.183173 100 100 255
0.235006 -0.024080 0.232647 100 100 255
-0.019045 -0.195869 -0.067245 100 100 255
0.193679 0.044785 -0.160942 100 100 255
0.159346 0.020428 -0.307468 100 100 255
-0.071777 0.044200 0.212907 100 100 255
-0.057177 0.273455 0.229660 100 100 255
0.065243 0.045161 -0.025073 100 100 255
0.130096 -0.231862 0.135326 100 100 255
0.298146 -0.063376 0.072974 100 100 255
-0.191874 0.449487 -0.223026 100 100 255
-0.013952 0.255356 -0.080601 100 100 255
0.097838 0.028476 -0.169522 100 100 255
0.010535 -0.297156 0.090650 100 100 255
0.153300 -0.009472 0.120161 100 100 255
-0.382890 0.173882 -0.035081 100 100 255
-0.049380 -0.051327 -0.117303 100 100 255
0.066700 0.201965 -0.017523 100 100 255
-0.013179 -0.071746 0.017137 100 100 255
-0.265924 0.109653 -0.017598 100 100 255
-0.062561 0.005743 -0.024981 100 100 255
-0.269249 -0.137861 -0.418482 100 100 255
-0.102953 0.167894 0.063670 100 100 255
0.399388 -0.178094 -0.083344 100 100 255
-0.262593 0.010160 -0.006386 100 100 255
-0.032851 0.246761 0.277256 100 100 255
-0.135425 0.116823 0.210899 100 100 255
0.108732 0.140075 0.057695 100 100 255
0.305393 -0.183154 0.037460 100 100 255
0.159459 -0.170604 0.339803 100 100 255
-0.359959 -0.027673 0.033399 100 100 255
-0.171393 -0.125371 0.084200 100 100 255
0.361555 0.302738 -0.002779 100 100 255
-0.133443 0.012961 -0.176308 100 100 255
0.043650 0.158011 0.191890 100 100 255
0.123980 0.174783 0.022872 100 100 255
-0.002818 0.210272 -0.045407 100 100 255
-0.090886 0.031016 -0.179172 100 100 255
-0.110511 0.156938 0.181229 100 100 255
0.001448 0.078297 0.138163 100 100 255
-0.085128 -0.116178 -0.394329 100 100 255
0.062763 -0.327905 0.045079 100 100 255
-0.118320 0.084696 0.116298 100 100 255
-0.018870 -0.173547 0.056156 100 100 255
-0.039331 -0.092153 -0.181327 100 100 255
-0.372920 0.352990 0.010493 100 100 255
0.357895 -0.021032 -0.005384 100 100 255
-0.238376 0.104942 -0.070559 100 100 255
-0.350671 0.004872 -0.043235 100 100 255
-0.142107 0.136545 -0.029457 100 100 255
0.173905 -0.035949 0.121368 100 100 255
0.346119 0.039964 -0.065731 100 100 255
0.107276 -0.011003 -0.014969 100 100 255
-0.074229 0.012619 0.105963 100 100 255
-0.135586 0.228901 -0.289461 100 100 255
0.264609 0.078144 -0.050890 100 100 255
-0.478570 -0.116232 -0.082858 100 100 255
0.239738 -0.206835 0.181991 100 100 255
-0.016129 0.032274 0.114378 100 100 255
-0.152050 -0.027058 -0.395777 100 100 255
-0.243939 0.125259 -0.113499 100 100 255
-0.113735 0.226349 -0.015551 100 100 255
0.073247 0.373019 0.000768 100 100 255
-0.084620 -0.208073 -0.185218 100 100 255
-0.071449 0.104352 0.077888 100 100 255
-0.289674 -0.063663 0.083985 100 100 255
-0.209714 -0.030027 0.071466 100 100 255
0.097136 0.052031 -0.171062 100 100 255
-0.106731 -0.123135 -0.275026 100 100 255
0.227501 -0.113105 -0.259556 100 100 255
0.129453 -0.241502 -0.013520 100 100 255
-0.137452 -0.000231 0.051126 100 100 255
-0.030720 -0.166488 -0.079760 100 100 255
0.019004 0.257365 -0.077008 100 100 255
-0.376883 0.434569 0.174435 100 100 255
-0.317608 -0.083905 0.164113 100 100 255
-0.022689 -0.215575 -0.304210 100 100 255
-0.226640 0.039092 0.014742 100 100 255
-0.103942 -0.145637 -0.039260 100 100 255
0.048497 -0.242901 -0.277072 100 100 255
-0.251344 0.209065 0.332145 100 100 255
-0.129206 -0.383621 0.060672 100 100 255
0.124508 -0.316441 0.042887 100 100 255
-0.295471 0.352559 -0.004555 100 100 255
0.282490 -0.005523 -0.067370 100 100 255
0.169464 -0.138963 -0.027380 100 100 255
0.264074 -0.075359 -0.041521 100 100 255
-0.068351 0.093199 0.330067 100 100 255
-0.181713 -0.145530 0.055982 100 100 255
0.220250 -0.079688 0.048838 100 100 255
0.114159 0.071458 -0.113242 100 100 255
-0.251682 -0.283049 0.100073 100 100 255
-0.196185 -0.064308 0.151567 100 100 255
-0.170522 0.106990 -0.038964 100 100 255
-0.168021 -0.134324 -0.057347 100 100 255
0.091480 0.059949 0.465236 100 100 255
0.176511 0.415217 -0.242341 100 100 255
0.098313 0.399625 0.421459 100 100 255
-0.155212 0.102406 -0.005897 100 100 255
-0.264500 0.182217 -0.229587 100 100 255
-0.093042 0.047500 -0.002284 100 100 255
0.050030 0.070165 -0.102119 100 100 255
-0.186500 -0.156274 -0.010632 100 100 255
-0.122444 -0.468282 0.116367 100 100 255
0.073622 -0.101567 0.137695 100 100 255
0.311524 -0.029432 0.182615 100 100 255
0.407406 -0.074680 0.094585 100 100 255
-0.082958 -0.096200 0.188742 100 100 255
-0.074199 0.054970 -0.110485 100 100 255
-0.151862 0.146357 -0.308780 100 100 255
0.007159 -0.126278 -0.003340 100 100 255
0.178687 -0.127268 -0.055008 100 100 255
-0.341639 0.270763 0.089633 100 100 255
0.035069 0.089382 -0.234005 100 100 255
0.399619 0.106158 0.131162 100 100 255
-0.013263 0.091043 -0.052093 100 100 255
-0.071871 -0.006562 0.003416 100 100 255
0.051145 -0.286606 0.027381 100 100 255
-0.261754 -0.301668 0.141184 100 100 255
0.153784 -0.013559 -0.095716 100 100 255
0.238081 0.178718 0.064767 100 100 255
-0.198108 0.162968 0.042451 100 100 255
-0.226787 0.182851 0.339543 100 100 255
0.171602 0.152186 0.032349 100 100 255
0.070888 -0.159908 0.125814 100 100 255
-0.283148 -0.267104 -0.029356 100 100 255
0.130395 0.211901 0.144961 100 100 255
0.007038 -0.227975 -0.034830 100 100 255
-0.176281 0.150522 0.162931 100 100 255
0.055768 -0.130882 -0.218747 100 100 255
0.149980 0.047123 0.045942 100 100 255
0.123050 -0.103167 -0.244531 100 100 255
-0.151115 -0.025366 -0.114260 100 100 255
0.213307 0.413000 -0.120944 100 100 255
-0.109450 0.089386 -0.046100 100 100 255
-0.120329 0.085430 -0.092135 100 100 255
-0.140915 0.072139 -0.234943 100 100 255
-0.096759 0.133467 -0.065013 100 100 255
-0.385416 0.008549 -0.048410 100 100 255
-0.042659 0.057108 -0.651233 100 100 255
-0.171044 -0.293381 0.233881 100 100 255
-0.355265 0.236172 -0.316402 100 100 255
0.055661 0.121440 -0.007773 100 100 255
0.043913 -0.000645 -0.051789 100 100 255
-0.371107 0.007017 0.124398 100 100 255
0.350401 -0.185476 0.059092 100 100 255
0.327635 0.139907 0.060910 100 100 255
0.290661 -0.093216 0.028208 100 100 255
-0.158502 0.086614 0.291357 100 100 255
-0.023046 -0.088365 0.181869 100 100 255
-0.081303 0.123977 -0.223368 100 100 255
-0.061943 0.146964 -0.375739 100 100 255
-0.163234 0.138710 -0.112880 100 100 255
0.015934 -0.300968 -0.037134 100 100 255
0.292854 0.229548 0.048003 100 100 255
0.048554 0.340481 0.086012 100 100 255
0.022692 0.170682 -0.051912 100 100 255
0.112066 -0.488907 0.264570 100 100 255
-0.326653 -0.332936 0.112785 100 100 255
-0.057549 -0.009120 -0.017078 100 100 255
-0.358473 0.414112 -0.571701 100 100 255
-0.177174 0.103990 0.037753 100 100 255
0.220674 0.226495 -0.169162 100 100 255
-0.066526 -0.077055 0.037145 100 100 255
0.044054 -0.382808 -0.061018 100 100 255
0.032830 -0.167916 -0.058952 100 100 255
-0.032547 0.331173 0.104517 100 100 255
-0.174424 0.403479 -0.021180 100 100 255
-0.127778 -0.106062 0.275443 100 100 255
0.322039 -0.017689 0.263755 100 100 255
0.047431 0.305148 0.259181 100 100 255
0.069939 -0.392819 0.154715 100 100 255
-0.011804 0.131087 -0.064001 100 100 255
0.036204 0.139470 -0.346778 100 100 255
0.065447 0.054292 -0.208693 100 100 255
-0.004765 -0.007689 0.007697 100 100 255
-0.123994 0.277649 0.120373 100 100 255
-0.332038 -0.037353 -0.251618 100 100 255
0.144935 0.097237 0.152801 100 100 255
0.157081 0.128800 -0.258947 100 100 255
-0.023891 0.165893 -0.247671 100 100 255
-0.011817 0.097692 0.290928 100 100 255
-0.093805 0.138639 -0.302078 100 100 255
0.080849 -0.117629 -0.006559 100 100 255
0.568136 -0.191464 -0.085660 100 100 255
0.105059 -0.346998 -0.318340 100 100 255
-0.129114 0.042170 -0.260549 100 100 255
-0.256359 -0.161851 0.389078 100 100 255
0.307268 -0.183287 0.034689 100 100 255
-0.171074 -0.047886 0.453751 100 100 255
0.233894 0.347917 0.251776 100 100 255
-0.208641 -0.126556 -0.038046 100 100 255
-0.067622 0.303656 -0.008302 100 100 255
-0.220704 0.238288 0.214497 100 100 255
0.145653 0.060199 0.274576 100 100 255
-0.250314 -0.099498 -0.199978 100 100 255
0.098133 -0.015405 -0.364562 100 100 255
0.035450 0.180090 0.123038 100 100 255
-0.256006 0.177787 -0.045905 100 100 255
0.403172 -0.100451 -0.085583 100 100 255
0.296766 -0.061678 -0.226058 100 100 255
0.192101 -0.212311 -0.158282 100 100 255
0.035270 0.052223 -0.190914 100 100 255
-0.123491 0.014118 -0.179064 100 100 255
0.134312 -0.030008 -0.296939 100 100 255
0.410597 -0.114858 -0.108230 100 100 255
-0.305670 -0.273774 -0.082808 100 100 255
0.044828 -0.054852 -0.080485 100 100 255
-0.189347 -0.417407 0.006717 100 100 255
0.000682 0.315047 -0.047473 100 100 255
-0.026088 -0.098872 0.093901 100 100 255
0.037488 0.101818 0.035692 100 100 255
-0.105952 0.020863 0.174953 100 100 255
0.043165 0.119405 0.283110 100 100 255
-0.133393 -0.296899 0.018434 100 100 255
0.142189 -0.085082 -0.082160 100 100 255
-0.078095 0.222033 0.002431 100 100 255
0.111352 0.261190 -0.002545 100 100 255
0.168240 0.131429 0.083614 100 100 255
0.310651 0.214803 -0.101667 100 100 255
0.100759 0.223231 0.080612 100 100 255
-0.199603 0.178701 -0.225198 100 100 255
-0.062942 0.043512 0.197777 100 100 255
0.075855 -0.006647 -0.191718 100 100 255
-0.038965 0.070912 -0.296460 100 100 255
-0.171541 0.055210 0.077078 100 100 255
-0.012944 0.013694 -0.120263 100 100 255
-0.071750 0.396357 0.092527 100 100 255
-0.047425 0.077403 -0.201471 100 100 255
-0.071893 -0.372375 0.170106 100 100 255
-0.100495 -0.272149 0.106750 100 100 255
-0.138316 0.114082 0.045486 100 100 255
0.126635 0.185688 -0.033565 100 100 255
0.010649 -0.192473 0.000939 100 100 255
-0.173743 -0.190578 -0.121870 100 100 255
0.277665 0.029388 0.076577 100 100 255
-0.128525 0.010924 -0.083099 100 100 255
-0.368923 -0.172090 -0.121861 100 100 255
-0.172426 0.017745 -0.283095 100 100 255
0.412771 -0.037733 -0.008725 100 100 255
0.020308 -0.096965 0.471871 100 100 255
-0.189104 0.331135 -0.313967 100 100 255
0.110840 -0.446367 -0.047846 100 100 255
-0.347815 0.066579 -0.025166 100 100 255
0.065575 -0.074575 -0.249263 100 100 255
0.016125 -0.065624 -0.156737 100 100 255
0.083074 -0.169225 -0.614335 100 100 255
-0.180335 -0.382389 0.047911 100 100 255
-0.002807 -0.425243 -0.020666 100 100 255
-0.001246 -0.438724 -0.068472 100 100 255
0.423003 -0.166299 0.232661 100 100 255
0.087235 0.012366 0.397206 100 100 255
0.088272 -0.056168 -0.186740 100 100 255
-0.138016 0.050297 -0.199341 100 100 255
-0.134421 0.212196 0.132602 100 100 255
0.064641 -0.341058 -0.244426 100 100 255
-0.317734 -0.060927 0.025098 100 100 255
0.119097 0.117417 0.073851 100 100 255
-0.060892 -0.215938 0.065190 100 100 255
-0.064980 0.121349 -0.176021 100 100 255
0.036007 -0.502343 -0.177447 100 100 255
-0.243996 -0.172692 0.189236 100 100 255
0.014671 0.185934 -0.070506 100 100 255
-0.150279 0.018355 -0.263292 100 100 255
0.113827 -0.064707 -0.129174 100 100 255
-0.336157 -0.004393 -0.135336 100 100 255
0.312073 -0.015541 0.213998 100 100 255
-0.297571 0.077977 -0.011387 100 100 255
0.152625 -0.176022 0.006963 100 100 255
-0.002952 0.195209 -0.035459 100 100 255
0.197163 0.139211 -0.193444 100 100 255
-0.048156 -0.256595 0.142844 100 100 255
0.265391 0.216731 -0.348643 100 100 255
0.032793 0.319238 0.014874 100 100 255
0.237286 0.001545 -0.327914 100 100 255
-0.568328 -0.162944 0.092436 100 100 255
0.121578 -0.085043 0.104312 100 100 255
-0.343921 0.092671 -0.079280 100 100 255
0.343360 0.150012 0.084640 100 100 255
0.068116 0.059876 -0.053255 100 100 255
-0.078466 -0.190525 -0.162703 100 100 255
0.186030 -0.477804 -0.170141 100 100 255
0.103432 0.053966 0.154033 100 100 255
-0.106372 -0.318387 0.459167 100 100 255
0.370353 -0.100246 -0.134724 100 100 255
-0.075399 0.054423 0.218333 100 100 255
-0.093630 0.037103 -0.010665 100 100 255
0.076600 -0.073270 -0.102992 100 100 255
0.086074 -0.125378 -0.159270 100 100 255
-0.161685 0.150700 -0.064253 100 100 255
0.261181 -0.015240 -0.126495 100 100 255
-0.137467 -0.171333 0.081482 100 100 255
0.331399 -0.258246 0.343588 100 100 255
-0.097184 -0.293427 0.188296 100 100 255
0.009588 0.017757 -0.189733 100 100 255
-0.051196 0.046273 -0.205919 100 100 255
-0.186730 0.074820 -0.278158 100 100 255
-0.303974 -0.440555 0.092160 100 100 255
-0.440841 -0.027584 -0.449248 100 100 255
0.048469 -0.224606 -0.000685 100 100 255
0.076452 -0.037630 -0.328320 100 100 255
0.096595 -0.127937 -0.168941 100 100 255
0.065366 -0.236620 0.262292 100 100 255
0.281815 -0.112306 0.178789 100 100 255
-0.027608 -0.080967 0.231982 100 100 255
0.148188 -0.100241 -0.005908 100 100 255
-0.140691 0.607342 0.064994 100 100 255
-0.465383 0.089824 0.187728 100 100 255
0.255097 -0.080397 -0.055580 100 100 255
-0.336583 0.130529 -0.232215 100 100 255
0.070214 -0.095625 0.182920 100 100 255
-0.223861 -0.007035 -0.075863 100 100 255
-0.135985 -0.043229 0.346817 100 100 255
0.020174 0.067810 -0.208176 100 100 255
-0.110194 0.136666 0.145412 100 100 255
0.005362 -0.168855 0.141647 100 100 255
-0.093368 -0.105862 0.294323 100 100 255
0.277855 -0.008368 -0.043203 100 100 255
0.181707 -0.336133 -0.174478 100 100 255
-0.144563 0.245037 -0.102586 100 100 255
-0.225306 -0.065692 0.083625 100 100 255
-0.155358 0.286485 -0.028131 100 100 255
-0.030861 0.146736 -0.090425 100 100 255
0.043228 0.016993 0.248180 100 100 255
-0.085151 -0.168690 -0.134725 100 100 255
0.049235 -0.052673 0.095342 100 100 255
0.071987 0.248492 0.224137 100 100 255
-0.102821 -0.269649 -0.137814 100 100 255
0.318815 -0.187237 -0.008811 100 100 255
0.114654 0.107276 0.275038 100 100 255
0.313585 0.104805 0.006155 100 100 255
-0.248892 0.210618 0.161046 100 100 255
0.234892 0.220306 0.410666 100 100 255
-0.311769 -0.106895 0.020591 100 100 255
0.011273 0.208871 -0.047042 100 100 255
0.136776 0.011315 -0.198446 100 100 255
-0.094496 -0.117348 -0.265355 100 100 255
-0.063968 0.090729 -0.092248 100 100 255
0.001722 -0.125419 0.100370 100 100 255
-0.257548 -0.209939 0.077528 100 100 255
0.196825 -0.046463 -0.613060 100 100 255
-0.234869 0.178484 0.047430 100 100 255
-0.024913 -0.126448 -0.256252 100 100 255
0.108657 0.133160 0.175246 100 100 255
0.386356 -0.235542 -0.299179 100 100 255
-0.071275 -0.063649 0.099025 100 100 255
0.062707 0.105984 0.250309 100 100 255
-0.093707 -0.009044 0.084918 100 100 255
0.120765 0.110555 -0.200896 100 100 255
-0.185554 -0.024477 0.543424 100 100 255
-0.043785 -0.114169 -0.165373 100 100 255
0.074195 0.035031 0.358412 100 100 255
0.191917 0.035652 -0.258882 100 100 255
-0.187338 0.019456 0.044008 100 100 255
0.009793 -0.185325 -0.350420 100 100 255
0.064128 -0.118695 -0.256527 100 100 255
0.034981 0.160106 -0.112926 100 100 255
-0.371506 0.269392 0.133532 100 100 255
-0.064131 -0.122857 -0.059833 100 100 255
-0.482090 -0.133809 0.081392 100 100 255
-0.044263 0.424460 -0.310578 100 100 255
-0.070113 0.242182 0.112410 100 100 255
-0.348954 0.003945 0.094075 100 100 255
0.062919 -0.029705 -0.341890 100 100 255
-0.259715 -0.266637 -0.253556 100 100 255
-0.072334 -0.290180 0.334298 100 100 255
0.055922 -0.264811 -0.005469 100 100 255
0.003607 0.090437 -0.064749 100 100 255
0.210130 0.114090 -0.050904 100 100 255
0.190510 0.133277 -0.243147 100 100 255
-0.209851 -0.033185 0.166548 100 100 255
0.025317 0.049880 0.191968 100 100 255
0.059632 -0.013969 0.297561 100 100 255
-0.147616 -0.418323 -0.206295 100 100 255
0.025508 0.086100 0.216771 100 100 255
-0.044286 0.039811 -0.024566 100 100 255
-0.222328 -0.202376 0.055845 100 100 255
0.298932 0.088334 -0.027427 100 100 255
0.475828 0.156217 -0.033377 100 100 255
-0.422788 0.273637 0.195587 100 100 255
-0.200143 -0.040310 -0.074732 100 100 255
0.193599 -0.175971 -0.049105 100 100 255
-0.092388 -0.282818 -0.144494 100 100 255
0.237047 0.126631 0.173147 100 100 255
0.026432 -0.119339 -0.229354 100 100 255
0.019814 -0.072857 0.056143 100 100 255
0.129078 0.229052 0.263138 100 100 255
-0.110844 -0.335146 -0.278620 100 100 255
-0.160460 -0.024191 0.302846 100 100 255
0.119125 0.244650 0.008433 100 100 255
-0.360338 -0.048031 0.004022 100 100 255
-0.058574 -0.013469 0.005653 100 100 255
-0.097436 0.014967 -0.030492 100 100 255
-0.071491 0.503965 -0.115691 100 100 255
-0.268225 -0.376066 -0.101412 100 100 255
-0.112185 0.194269 -0.308734 100 100 255
-0.021608 0.071886 0.294457 100 100 255
0.154808 -0.039453 -0.161842 100 100 255
-0.163673 -0.088267 -0.258874 100 100 255
-0.112381 0.045994 -0.236730 100 100 255
-0.114799 0.011676 -0.245829 100 100 255
-0.271657 -0.006296 -0.363890 100 100 255
0.187095 -0.148558 -0.190936 100 100 255
0.073478 0.085696 -0.187954 100 100 255
0.140119 -0.221751 -0.262725 100 100 255
-0.125521 -0.139398 -0.034857 100 100 255
-0.037735 0.022811 -0.518211 100 100 255
-0.061848 0.369453 0.059280 100 100 255
-0.119154 0.188496 -0.336461 100 100 255
-0.078293 -0.026383 0.071990 100 100 255
0.212976 -0.461260 0.158289 100 100 255
0.097670 0.097550 0.164124 100 100 255
-0.096821 0.034773 -0.037664 100 100 255
0.059456 0.206648 0.033832 100 100 255
0.257640 0.100609 -0.192453 100 100 255
0.030325 -0.040210 0.188126 100 100 255
-0.130017 -0.168404 -0.039490 100 100 255
0.208605 -0.433802 0.097831 100 100 255
-0.002023 0.155011 0.109596 100 100 255
-0.144449 0.050424 0.109479 100 100 255
-0.014621 0.296431 0.230148 100 100 255
-0.313657 0.004846 -0.399158 100 100 255
-0.121975 0.066048 0.373678 100 100 255
-0.154687 0.089260 -0.268188 100 100 255
-0.080926 0.279833 -0.091816 100 100 255
-0.245927 -0.244373 0.059573 100 100 255
0.181314 0.005674 0.098687 100 100 255
0.008947 0.140267 0.161753 100 100 255
-0.150886 0.213949 -0.159178 100 100 255
-0.174607 -0.221778 0.056259 100 100 255
-0.432145 -0.049310 0.165445 100 100 255
-0.003079 0.237453 0.078657 100 100 255
0.026441 0.060815 0.010029 100 100 255
-0.114716 -0.156630 -0.043775 100 100 255
-0.030390 -0.017620 0.167449 100 100 255
-0.438993 -0.060765 0.318831 100 100 255
0.241140 -0.023795 0.011681 100 100 255
-0.189514 -0.123578 -0.188095 100 100 255
-0.031897 0.220464 -0.309643 100 100 255
-0.116858 0.091205 0.068834 100 100 255
0.103055 0.038836 0.078489 100 100 255
-0.029904 -0.246346 0.093105 100 100 255
-0.180038 0.004187 0.113571 100 100 255
0.078793 0.378961 -0.367792 100 100 255
-0.171731 0.108470 -0.334378 100 100 255
-0.192491 0.159455 -0.124170 100 100 255
-0.008376 0.075674 0.112360 100 100 255
0.173626 0.092240 -0.062329 100 100 255
-0.051160 0.067596 -0.012951 100 100 255
-0.068758 -0.281032 -0.263635 100 100 255
0.065398 0.216205 0.050399 100 100 255
-0.099644 0.040876 0.154713 100 100 255
-0.036819 -0.336004 0.089793 100 100 255
-0.028143 0.063565 -0.256823 100 100 255
0.194799 0.076313 -0.212536 100 100 255
0.174987 -0.122384 -0.184124 100 100 255
-0.057005 -0.419211 -0.067621 100 100 255
0.109934 -0.112202 0.169348 100 100 255
-0.191756 0.425860 -0.104807 100 100 255
0.280954 -0.269120 0.181112 100 100 255
0.399710 -0.396382 0.034060 100 100 255
0.000588 -0.117921 -0.032731 100 100 255
-0.090571 -0.098311 0.208824 100 100 255
-0.033621 0.209313 -0.075024 100 100 255
-0.416820 -0.180395 0.191922 100 100 255
0.393967 -0.113053 0.171755 100 100 255
-0.239228 0.044132 0.069781 100 100 255
-0.200306 0.322766 0.125977 100 100 255
0.035900 0.022865 0.100702 100 100 255
-0.182864 0.086641 0.138293 100 100 255
0.043894 -0.219306 0.123238 100 100 255
0.038191 0.079614 -0.234042 100 100 255
-0.172598 0.131020 0.110920 100 100 255
-0.354930 -0.016313 0.059843 100 100 255
0.277784 0.014489 0.099364 100 100 255
0.047400 -0.233719 -0.071576 100 100 255
0.010495 0.182612 -0.039505 100 100 255
-0.033175 -0.064736 0.143350 100 100 255
0.100541 0.012360 0.079901 100 100 255
0.372466 -0.048604 0.330943 100 100 255
0.231014 -0.042298 -0.294376 100 100 255
0.071049 -0.351619 -0.109780 100 100 255
0.174960 -0.423371 -0.158032 100 100 255
-0.015490 -0.311117 -0.453285 100 100 255
0.217090 0.029204 0.086029 100 100 255
0.080881 -0.219152 0.156871 100 100 255
0.433268 -0.208192 0.075696 100 100 255
-0.060875 0.203483 0.260702 100 100 255
-0.083494 -0.004057 0.157163 100 100 255
-0.255500 0.266366 0.416859 100 100 255
-0.171116 -0.311165 0.029519 100 100 255
0.095683 0.169043 -0.204076 100 100 255
0.225607 0.101195 0.126758 100 100 255
-0.151014 -0.328518 -0.112616 100 100 255
0.105612 0.292577 -0.208355 100 100 255
-0.042588 0.037095 -0.475889 100 100 255
0.136187 0.065740 -0.433876 100 100 255
0.096323 0.083612 0.023552 100 100 255
-0.377648 0.072004 0.464832 100 100 255
0.162312 0.308880 -0.183430 100 100 255
-0.077562 0.175721 -0.017220 100 100 255
0.019872 -0.258525 0.285395 100 100 255
0.142068 -0.119101 0.005318 100 100 255
-0.097573 -0.079154 0.227225 100 100 255
-0.069281 -0.104322 -0.232537 100 100 255
-0.494280 0.087504 -0.439013 100 100 255
0.005738 -0.300091 0.176352 100 100 255
-0.075688 0.574272 -0.396670 100 100 255
0.298865 0.240455 -0.026362 100 100 255
0.066670 -0.193312 -0.046997 100 100 255
0.206447 -0.257865 0.082244 100 100 255
-0.015030 -0.051743 -0.351641 100 100 255
0.159142 0.144306 -0.009970 100 100 255
0.055321 0.071869 -0.059688 100 100 255
-0.247089 0.099425 0.215519 100 100 255
-0.141002 0.113017 0.182432 100 100 255
0.413805 0.072782 0.010250 100 100 255
-0.069061 0.056865 -0.092963 100 100 255
-0.080583 -0.032949 -0.076752 100 100 255
-0.068659 0.047629 -0.051529 100 100 255
0.019229 0.174759 -0.139944 100 100 255
0.035866 -0.178934 -0.202742 100 100 255
0.033220 -0.265302 -0.148524 100 100 255
-0.364322 -0.257308 0.153693 100 100 255
0.073107 -0.284963 0.064877 100 100 255
-0.028718 -0.288921 -0.170216 100 100 255
0.052315 -0.183549 -0.029255 100 100 255
-0.144446 -0.079573 -0.085597 100 100 255
0.183531 0.095137 0.089072 100 100 255
0.070521 0.246510 -0.474545 100 100 255
0.246286 0.062993 -0.142802 100 100 255
0.079853 0.153309 0.262544 100 100 255
0.075257 0.056947 0.018477 100 100 255
-0.118604 -0.126921 -0.038663 100 100 255
-0.268901 -0.036354 -0.102075 100 100 255
0.095128 0.006789 -0.287175 100 100 255
-0.022314 0.225258 -0.163106 100 100 255
-0.307112 -0.122703 0.324132 100 100 255
-0.084926 0.129157 -0.170185 100 100 255
0.306994 -0.189613 0.192168 100 100 255
-0.259263 -0.288213 -0.014042 100 100 255
-0.099512 -0.241514 -0.026486 100 100 255
0.091281 -0.316192 -0.372470 100 100 255
-0.189523 -0.065726 0.180336 100 100 255
-0.316234 0.163719 0.360282 100 100 255
-0.111653 0.061671 -0.203738 100 100 255
-0.068447 0.196467 0.199711 100 100 255
0.093179 -0.327245 0.347738 100 100 255
0.100925 0.120671 -0.062987 100 100 255
-0.428366 0.139503 -0.008517 100 100 255
-0.094953 -0.085907 0.074462 100 100 255
-0.256012 -0.171121 -0.002262 100 100 255
-0.342769 0.019357 0.175538 100 100 255
-0.165318 0.244768 0.006237 100 100 255
0.231672 0.074819 0.180650 100 100 255
-0.288398 0.151173 0.123071 100 100 255
0.295350 0.014680 0.125042 100 100 255
-0.043699 -0.029239 -0.212525 100 100 255
-0.399904 0.026981 -0.114192 100 100 255
-0.001665 0.040677 -0.364897 100 100 255
0.145624 0.389514 -0.208470 100 100 255
0.139963 0.009777 0.127583 100 100 255
0.034850 -0.194467 0.044937 100 100 255
-0.132091 0.161385 -0.023094 100 100 255
-0.012738 -0.027715 0.196852 100 100 255
0.109690 -0.179735 -0.129261 100 100 255
-0.332474 -0.049643 -0.193700 100 100 255
0.141511 0.015798 0.124029 100 100 255
-0.073278 0.099176 0.004842 100 100 255
-0.051553 -0.156358 0.060302 100 100 255
-0.071579 0.117833 -0.327954 100 100 255
0.223220 -0.106535 -0.046773 100 100 255
-0.344790 0.179866 0.078805 100 100 255
-0.227757 0.156648 -0.118029 100 100 255
-0.231129 0.066401 0.119544 100 100 255
-0.040525 0.301447 0.343267 100 100 255
0.029753 -0.119365 0.167646 100 100 255
0.045736 0.105892 0.096085 100 100 255
0.261480 -0.150894 -0.338005 100 100 255
0.222528 0.173868 -0.042302 100 100 255
-0.219341 -0.165959 -0.124320 100 100 255
-0.012397 0.634964 -0.196186 100 100 255
-0.213534 -0.038711 0.204365 100 100 255
-0.052670 0.083357 0.282865 100 100 255
0.143570 0.037417 -0.129872 100 100 255
-0.094324 0.296785 0.359222 100 100 255
0.094178 0.140005 0.103990 100 100 255
-0.272941 -0.103772 0.024805 100 100 255
-0.151021 -0.076694 -0.200309 100 100 255
0.354499 0.070697 -0.029791 100 100 255
0.304349 0.099725 -0.240058 100 100 255
0.147622 -0.317944 -0.099186 100 100 255
0.166366 0.110519 0.110358 100 100 255
0.042386 0.050235 0.264785 100 100 255
-0.227125 -0.345359 -0.150345 100 100 255
0.104871 0.069010 0.247215 100 100 255
0.150523 0.374683 -0.032569 100 100 255
-0.057593 0.351545 -0.041090 100 100 255
0.268461 0.452744 -0.000677 100 100 255
-0.242765 -0.137372 0.096113 100 100 255
-0.315384 0.330742 -0.091201 100 100 255
0.065214 -0.501706 -0.017943 100 100 255
-0.286554 -0.190215 -0.323027 100 100 255
0.078092 0.342863 -0.009340 100 100 255
0.117546 -0.273841 0.361740 100 100 255
-0.095400 0.051752 0.288310 100 100 255
-0.022793 -0.068273 -0.165670 100 100 255
-0.217702 -0.061856 -0.068131 100 100 255
0.256974 -0.284514 -0.133483 100 100 255
0.132904 -0.226935 0.110971 100 100 255
-0.107218 -0.338363 0.144687 100 100 255
0.146554 0.202277 0.232981 100 100 255
-0.055740 -0.017503 0.091644 100 100 255
0.131270 0.009389 -0.296142 100 100 255
-0.054907 0.217299 0.014457 100 100 255
0.004582 -0.040131 0.102941 100 100 255
-0.313605 -0.155928 0.086891 100 100 255
0.454366 0.003621 -0.181954 100 100 255
-0.037323 -0.250026 0.552414 100 100 255
-0.162578 0.109619 -0.405026 100 100 255
-0.008721 0.102958 0.276721 100 100 255
-0.043360 0.321831 0.362289 100 100 255
-0.210373 -0.160829 0.025642 100 100 255
0.111140 -0.202819 -0.192495 100 100 255
0.050558 -0.225107 -0.034622 100 100 255
-0.054497 0.292511 -0.278753 100 100 255
0.165603 -0.121526 0.435060 100 100 255
0.148333 -0.053662 -0.048376 100 100 255
0.525908 0.032352 -0.153926 100 100 255
0.067574 0.049030 -0.147463 100 100 255
0.147584 0.127198 -0.173163 100 100 255
-0.136038 0.379806 -0.246353 100 100 255
-0.094010 -0.090861 -0.174450 100 100 255
0.293175 0.122722 -0.203946 100 100 255
0.131136 -0.040539 -0.052218 100 100 255
-0.175076 0.165834 -0.149321 100 100 255
0.265695 0.026450 0.056977 100 100 255
-0.260919 -0.108127 0.137251 100 100 255
0.174113 -0.156846 -0.081207 100 100 255
-0.255263 0.044127 0.016847 100 100 255
0.105779 -0.117036 0.050502 100 100 255
