ply
format ascii 1.0
element vertex 1179
property float x
property float y
property float z
property uchar red
property uchar green
property uchar blue
end_header
-0.157289 0.022800 -0.143850 255 100 100
0.002335 -0.193646 0.013617 255 100 100
-0.143121 -0.013595 0.300882 255 100 100
0.004609 -0.153799 0.297591 255 100 100
0.043268 0.321598 0.159528 255 100 100
0.357481 0.176574 -0.341626 255 100 100
-0.245304 -0.279250 -0.074200 255 100 100
0.083568 -0.278623 -0.198448 255 100 100
-0.069713 -0.148944 0.155722 255 100 100
-0.206844 -0.005127 -0.113291 255 100 100
-0.274850 -0.056717 -0.205665 255 100 100
-0.041116 0.456617 -0.421135 255 100 100
-0.204144 0.227892 -0.299694 255 100 100
0.271455 0.156198 -0.349634 255 100 100
-0.240400 -0.224711 -0.393694 255 100 100
0.189540 0.370614 0.571298 255 100 100
0.491529 -0.152966 -0.231749 255 100 100
-0.171716 0.192723 0.355227 255 100 100
-0.142309 0.136885 -0.101565 255 100 100
-0.287708 -0.143073 0.158274 255 100 100
-0.307738 -0.026408 -0.031011 255 100 100
0.071331 -0.028334 -0.071161 255 100 100
-0.031172 -0.147064 0.093706 255 100 100
-0.121004 -0.079877 0.013481 255 100 100
-0.315780 -0.151557 0.161872 255 100 100
-0.077715 -0.381327 0.090957 255 100 100
0.025704 0.058616 -0.177917 255 100 100
0.040684 0.109237 0.062533 255 100 100
0.094822 -0.353855 0.337816 255 100 100
-0.037385 -0.245633 0.424866 255 100 100
-0.052859 -0.094186 -0.154140 255 100 100
0.096298 -0.372138 0.139229 255 100 100
-0.093668 0.179975 -0.182466 255 100 100
0.075821 0.140940 0.218438 255 100 100
-0.143448 -0.259188 0.179667 255 100 100
-0.044058 -0.283418 0.209140 255 100 100
-0.024305 -0.210106 -0.471406 255 100 100
-0.207842 0.219988 0.418698 255 100 100
0.199696 0.486260 0.292157 255 100 100
-0.195282 -0.014509 0.026322 255 100 100
-0.065678 -0.489546 0.014437 255 100 100
0.302248 0.319770 -0.163691 255 100 100
-0.147193 0.313074 0.127018 255 100 100
0.018161 -0.366898 0.198252 255 100 100
-0.333189 -0.047007 -0.141285 255 100 100
0.130645 0.244134 0.021209 255 100 100
-0.054730 -0.214462 0.213177 255 100 100
0.007954 -0.228193 -0.193301 255 100 100
0.348368 0.402387 -0.388020 255 100 100
-0.053352 0.198236 0.053297 255 100 100
-0.045058 0.334835 0.003071 255 100 100
-0.182086 -0.272714 0.083692 255 100 100
0.313471 -0.127831 -0.570034 255 100 100
-0.007937 -0.182619 -0.094071 255 100 100
-0.022283 0.058731 -0.370777 255 100 100
-0.290417 -0.113529 0.318494 255 100 100
-0.166939 0.088601 0.405045 255 100 100
0.040027 -0.382871 -0.186584 255 100 100
0.132685 -0.345042 -0.293726 255 100 100
0.012909 -0.204886 0.366138 255 100 100
0.057274 0.081313 -0.000353 255 100 100
-0.276342 -0.244369 -0.384698 255 100 100
-0.017516 0.274466 0.133518 255 100 100
-0.011004 0.185866 -0.334412 255 100 100
0.116918 0.257297 0.108685 255 100 100
0.147510 0.084057 -0.257149 255 100 100
-0.055775 0.101989 0.197656 255 100 100
0.344318 0.509367 -0.022240 255 100 100
0.267331 0.048845 -0.252740 255 100 100
0.016156 0.146561 0.025712 255 100 100
-0.362054 0.404598 -0.141386 255 100 100
-0.093961 0.141100 0.195003 255 100 100
0.019404 0.113537 0.210125 255 100 100
-0.005760 -0.173143 -0.267604 255 100 100
0.300350 -0.224267 -0.331427 255 100 100
0.185852 -0.383049 -0.394728 255 100 100
-0.029121 0.041235 0.087610 255 100 100
-0.324032 -0.053358 -0.033912 255 100 100
-0.023651 -0.097746 0.025440 255 100 100
0.028065 0.109573 0.026760 255 100 100
-0.289487 -0.011383 -0.153904 255 100 100
0.025451 0.068321 0.147377 255 100 100
-0.020234 0.183992 0.324949 255 100 100
-0.103354 -0.324940 -0.054616 255 100 100
0.021983 -0.341517 -0.037849 255 100 100
0.589479 0.094895 -0.341233 255 100 100
0.043240 0.023704 -0.058185 255 100 100
0.166952 -0.021095 -0.214481 255 100 100
-0.022462 -0.060053 0.229497 255 100 100
0.106920 -0.092373 -0.137041 255 100 100
-0.078465 -0.505391 0.091756 255 100 100
0.466547 0.403294 -0.095764 255 100 100
-0.090875 -0.093576 -0.133627 255 100 100
-0.200855 -0.143321 0.005068 255 100 100
0.057679 0.226814 0.031477 255 100 100
0.157439 -0.297563 -0.392303 255 100 100
0.058962 0.124995 0.180294 255 100 100
0.003142 0.121623 -0.144534 255 100 100
-0.004115 0.088769 -0.241138 255 100 100
-0.013952 -0.025519 -0.113333 255 100 100
-0.005979 -0.419208 0.228745 255 100 100
-0.268007 0.226102 -0.128713 255 100 100
0.126991 -0.150651 -0.191556 255 100 100
-0.153731 0.223616 0.016221 255 100 100
-0.156779 0.115016 0.060903 255 100 100
0.737631 0.122380 0.306652 255 100 100
-0.347335 -0.297656 0.221696 255 100 100
-0.181018 -0.208378 0.109165 255 100 100
0.065547 0.226510 -0.152814 255 100 100
0.075357 0.165953 0.262959 255 100 100
-0.147244 0.095451 -0.000052 255 100 100
-0.133252 0.217735 0.382682 255 100 100
-0.079815 0.003918 -0.100699 255 100 100
-0.128633 0.245467 0.015378 255 100 100
0.282571 0.530919 -0.304270 255 100 100
-0.201521 0.055531 -0.102614 255 100 100
-0.120904 -0.032461 0.272081 255 100 100
-0.072771 -0.285181 0.221469 255 100 100
-0.048593 -0.049402 -0.216732 255 100 100
-0.391558 0.225857 -0.199625 255 100 100
0.142176 -0.252520 0.600298 255 100 100
0.033336 -0.205895 -0.004531 255 100 100
0.165766 0.595994 -0.074637 255 100 100
0.117765 -0.405490 0.304298 255 100 100
0.223714 0.148216 -0.115693 255 100 100
-0.314894 -0.251860 -0.150132 255 100 100
0.034899 0.064659 -0.079861 255 100 100
0.273282 -0.308031 -0.163009 255 100 100
-0.037653 0.368780 0.151378 255 100 100
0.105257 0.121161 -0.066044 255 100 100
-0.022537 -0.177653 0.203330 255 100 100
0.161914 0.072316 -0.149723 255 100 100
-0.161776 -0.091338 0.058438 255 100 100
0.210340 0.398691 0.032451 255 100 100
-0.170596 -0.118248 -0.258893 255 100 100
0.416899 0.147594 -0.290540 255 100 100
0.152712 0.241374 -0.285997 255 100 100
0.058884 0.027105 -0.198757 255 100 100
0.332523 -0.538505 -0.132096 255 100 100
0.210943 -0.213793 -0.339174 255 100 100
0.000073 -0.214243 0.179870 255 100 100
0.091198 0.172297 0.090203 255 100 100
-0.077843 -0.099146 0.096724 255 100 100
0.132510 -0.326290 0.413823 255 100 100
-0.032372 0.077524 0.032859 255 100 100
-0.013198 0.078232 0.150521 255 100 100
0.201759 0.130421 -0.407379 255 100 100
0.222556 0.212762 -0.209781 255 100 100
0.072069 0.208895 -0.146360 255 100 100
0.006434 0.128311 0.128161 255 100 100
-0.079183 -0.038753 0.478183 255 100 100
0.037772 -0.107172 -0.079734 255 100 100
0.323630 0.089740 -0.273394 255 100 100
0.736275 -0.149940 0.439804 255 100 100
0.112082 0.341687 -0.434482 255 100 100
0.038998 0.122947 0.031872 255 100 100
-0.270374 -0.145850 -0.110326 255 100 100
0.072447 0.331146 -0.151392 255 100 100
-0.227937 -0.056848 -0.151553 255 100 100
-0.052438 0.280247 0.148325 255 100 100
-0.254343 -0.202716 0.287608 255 100 100
-0.226366 0.275226 0.255886 255 100 100
0.095772 -0.424633 0.211283 255 100 100
0.081658 0.124852 -0.082852 255 100 100
0.525312 -0.402140 -0.121545 255 100 100
0.340564 0.361786 -0.096696 255 100 100
0.009381 0.066642 0.066121 255 100 100
-0.255606 0.299374 -0.169421 255 100 100
-0.011878 0.357345 0.184647 255 100 100
-0.284526 -0.239341 -0.171628 255 100 100
0.315298 0.213441 -0.426082 255 100 100
-0.104219 0.392235 -0.079324 255 100 100
-0.116281 0.065397 -0.162254 255 100 100
0.181468 -0.192221 -0.186670 255 100 100
-0.341974 -0.079521 0.250701 255 100 100
0.017916 -0.200844 0.057484 255 100 100
0.143316 -0.272771 -0.146862 255 100 100
-0.002681 0.213371 0.217736 255 100 100
-0.156266 -0.028396 -0.121101 255 100 100
-0.027061 -0.082685 0.209889 255 100 100
0.143870 -0.447756 0.171652 255 100 100
0.101308 0.293561 -0.107486 255 100 100
0.301975 -0.416718 -0.130794 255 100 100
0.117589 0.206922 0.185274 255 100 100
-0.368781 0.025512 0.116990 255 100 100
0.056529 -0.302659 0.011983 255 100 100
0.042054 0.399431 -0.080232 255 100 100
-0.147352 -0.299162 -0.111398 255 100 100
-0.079896 0.010571 0.301470 255 100 100
-0.186725 0.016085 0.015222 255 100 100
-0.240157 -0.236628 -0.400255 255 100 100
-0.116307 -0.463564 0.201385 255 100 100
-0.321811 0.170196 0.338711 255 100 100
0.080463 -0.481477 -0.147095 255 100 100
-0.238361 -0.173543 0.333314 255 100 100
0.150413 0.334584 -0.073766 255 100 100
0.038992 0.174917 0.183258 255 100 100
-0.036949 -0.579195 -0.168477 255 100 100
0.402653 -0.172975 -0.269639 255 100 100
0.030800 -0.485785 -0.104659 255 100 100
-0.056687 -0.217212 0.095213 255 100 100
0.047914 0.417439 0.026547 255 100 100
0.188706 0.247211 0.185427 255 100 100
0.345291 0.285523 0.263751 255 100 100
0.112537 0.245058 -0.072688 255 100 100
-0.486419 -0.295699 -0.501166 255 100 100
-0.041903 -0.056560 -0.044744 255 100 100
0.111971 0.102142 -0.139926 255 100 100
-0.001048 -0.196063 0.177950 255 100 100
0.095754 0.175587 0.443821 255 100 100
-0.011362 -0.234966 -0.128604 255 100 100
0.368996 0.275480 -0.196879 255 100 100
-0.058010 -0.567855 0.316214 255 100 100
0.004220 0.286829 0.149482 255 100 100
0.291710 0.205933 -0.198622 255 100 100
-0.227134 0.441589 0.176579 255 100 100
0.012818 -0.120994 -0.278571 255 100 100
-0.105692 -0.443045 0.102868 255 100 100
0.188079 -0.588547 0.295489 255 100 100
0.110128 0.250646 -0.279526 255 100 100
0.196713 0.114369 -0.257378 255 100 100
-0.058134 -0.149188 -0.068444 255 100 100
-0.048531 0.018092 0.157048 255 100 100
-0.061661 0.154806 0.115800 255 100 100
-0.554811 0.266140 -0.396890 255 100 100
0.414684 -0.158546 -0.319350 255 100 100
-0.205139 0.189219 0.066588 255 100 100
-0.027491 -0.014501 -0.238890 255 100 100
0.020061 0.126600 0.019683 255 100 100
0.503121 -0.415999 -0.368275 255 100 100
0.140421 0.132286 -0.271462 255 100 100
0.236926 0.532947 0.228882 255 100 100
-0.213607 -0.005305 -0.421855 255 100 100
0.338387 -0.123941 -0.437577 255 100 100
0.118133 0.201573 0.390985 255 100 100
0.132247 -0.059286 -0.348784 255 100 100
-0.197353 -0.359191 -0.178850 255 100 100
0.144580 -0.041077 -0.346852 255 100 100
-0.265512 0.091560 0.289556 255 100 100
-0.014321 -0.002904 0.051684 255 100 100
0.150427 0.200261 0.012349 255 100 100
0.250944 0.344620 0.192833 255 100 100
0.034786 0.239245 0.004591 255 100 100
-0.138116 0.257445 0.122490 255 100 100
-0.151068 -0.414764 0.047435 255 100 100
-0.007923 -0.166283 0.216846 255 100 100
0.490322 -0.519431 0.238391 255 100 100
-0.252702 -0.181656 -0.206473 255 100 100
0.142181 0.281397 -0.053496 255 100 100
-0.116880 0.075911 -0.161705 255 100 100
-0.084469 0.089851 0.018441 255 100 100
0.283495 0.285803 -0.424391 255 100 100
-0.105054 -0.084216 -0.241349 255 100 100
-0.135871 -0.132047 0.057738 255 100 100
0.346762 0.258516 -0.247526 255 100 100
-0.211983 0.110597 -0.182174 255 100 100
-0.213277 0.041970 -0.174169 255 100 100
0.372934 -0.195874 -0.265500 255 100 100
-0.296985 0.249967 0.094638 255 100 100
-0.065550 -0.170378 0.233676 255 100 100
-0.206781 0.166141 -0.092349 255 100 100
-0.168020 -0.782859 0.267678 255 100 100
0.089669 0.134281 0.357946 255 100 100
-0.073612 -0.467739 0.218128 255 100 100
0.000365 -0.282756 -0.195824 255 100 100
0.158141 0.338464 -0.228780 255 100 100
0.135371 0.083399 -0.179124 255 100 100
0.002853 -0.315865 -0.062874 255 100 100
-0.072573 -0.003540 -0.138838 255 100 100
0.009569 -0.059725 -0.055187 255 100 100
-0.184887 -0.170730 0.165759 255 100 100
0.073318 0.328407 0.306343 255 100 100
-0.150134 0.509525 0.310263 255 100 100
-0.061658 0.314462 -0.206166 255 100 100
0.093447 -0.185938 0.448754 255 100 100
-0.184792 0.414997 -0.124388 255 100 100
-0.116371 -0.195011 0.101179 255 100 100
-0.164391 0.098118 -0.012982 255 100 100
-0.338410 -0.266192 0.110308 255 100 100
0.384997 -0.517219 0.241669 255 100 100
-0.121134 -0.048545 -0.067900 255 100 100
-0.017263 -0.342536 -0.215880 255 100 100
0.485765 0.274943 0.038178 255 100 100
0.167068 -0.475786 -0.227320 255 100 100
-0.157636 -0.249792 -0.236273 255 100 100
-0.143581 -0.308760 -0.009054 255 100 100
-0.100276 -0.024613 0.298007 255 100 100
-0.247886 -0.302377 0.059063 255 100 100
0.339579 -0.399964 -0.236558 255 100 100
0.244546 -0.036567 -0.214464 255 100 100
-0.274526 0.159648 -0.196903 255 100 100
0.220147 -0.457057 -0.213464 255 100 100
-0.114006 0.000381 -0.157204 255 100 100
0.058036 0.035338 -0.027587 255 100 100
-0.099423 0.030819 -0.280743 255 100 100
-0.478786 -0.111162 -0.056254 255 100 100
-0.418001 -0.011266 -0.237534 255 100 100
0.348145 -0.165977 -0.268719 255 100 100
-0.098781 -0.229438 -0.299266 255 100 100
-0.358803 0.087044 0.097127 255 100 100
0.413776 -0.486884 -0.165616 255 100 100
0.229147 0.449075 0.010303 255 100 100
0.181514 0.009498 -0.269194 255 100 100
0.254392 -0.455536 -0.023603 255 100 100
-0.077667 -0.200755 0.182104 255 100 100
-0.276937 0.259128 0.067535 255 100 100
-0.145417 0.204960 0.234420 255 100 100
0.026597 0.379579 0.158228 255 100 100
-0.314026 -0.329540 -0.063468 255 100 100
0.069599 0.088658 -0.371825 255 100 100
-0.175181 0.256698 0.410871 255 100 100
-0.274854 -0.065603 0.065152 255 100 100
0.170856 -0.035815 -0.253610 255 100 100
-0.041483 -0.001387 -0.042291 255 100 100
0.015239 -0.294797 -0.033840 255 100 100
-0.179836 -0.082072 -0.052392 255 100 100
-0.048536 -0.311080 -0.503735 255 100 100
0.399104 -0.608748 0.457096 255 100 100
0.114845 0.111447 -0.201526 255 100 100
0.394083 -0.095898 -0.320411 255 100 100
-0.180473 0.095667 0.085010 255 100 100
-0.139523 -0.011647 0.001366 255 100 100
0.239781 0.292936 -0.147963 255 100 100
0.047451 0.216956 0.052017 255 100 100
-0.092872 0.014178 0.031909 255 100 100
-0.167124 -0.130815 -0.138146 255 100 100
0.023533 -0.306428 -0.078919 255 100 100
-0.112332 -0.083005 0.100577 255 100 100
-0.224487 -0.006504 0.093586 255 100 100
-0.252131 0.164466 0.258360 255 100 100
-0.177808 0.188112 0.114429 255 100 100
-0.106518 -0.196999 0.196349 255 100 100
-0.078671 -0.151772 0.025068 255 100 100
-0.205417 -0.319865 -0.252553 255 100 100
0.256960 0.305277 -0.248755 255 100 100
0.059687 -0.508652 0.240353 255 100 100
-0.049129 -0.085128 0.396911 255 100 100
0.122501 0.091652 -0.332252 255 100 100
-0.116307 0.056254 0.089573 255 100 100
-0.383742 -0.238154 0.485538 255 100 100
-0.222785 -0.295412 0.044502 255 100 100
0.034646 0.349703 0.258935 255 100 100
-0.023885 0.161243 0.066246 255 100 100
-0.096711 -0.097985 0.135112 255 100 100
-0.207611 -0.191151 0.385860 255 100 100
-0.037106 0.068284 0.134337 255 100 100
-0.209857 -0.153043 0.329590 255 100 100
0.105339 0.390928 0.204852 255 100 100
-0.120892 0.033187 0.113132 255 100 100
0.090559 0.173659 -0.082651 255 100 100
0.267095 -0.147867 -0.232729 255 100 100
-0.034616 -0.117597 0.108666 255 100 100
0.095016 0.387627 -0.025812 255 100 100
0.283228 0.122899 -0.158622 255 100 100
0.072212 0.058367 -0.224847 255 100 100
-0.019566 -0.340156 0.172989 255 100 100
0.114503 0.309221 0.205928 255 100 100
-0.102280 -0.459878 0.045973 255 100 100
0.156469 0.550204 -0.097528 255 100 100
0.478732 -0.454472 -0.751180 255 100 100
-0.308383 -0.270938 0.139719 255 100 100
0.568674 -0.058587 -0.513057 255 100 100
-0.237179 -0.081488 0.225679 255 100 100
0.128905 -0.056184 -0.390993 255 100 100
0.125847 0.185907 -0.039474 255 100 100
-0.054193 -0.074031 -0.169307 255 100 100
-0.102636 -0.079531 -0.169331 255 100 100
0.252533 0.053063 -0.489991 255 100 100
-0.000202 -0.080863 0.001397 255 100 100
0.051304 0.078643 -0.189477 255 100 100
-0.111226 -0.124666 0.301073 255 100 100
0.133161 0.328260 0.278809 255 100 100
-0.374137 -0.170139 -0.103832 255 100 100
-0.120809 -0.206619 -0.046897 255 100 100
0.018539 -0.285367 -0.083792 255 100 100
0.310463 0.009032 0.532450 255 100 100
0.492381 0.285274 -0.102474 255 100 100
0.089253 0.068053 -0.282298 255 100 100
0.332320 0.356494 -0.007116 255 100 100
-0.010469 -0.363293 0.328089 255 100 100
0.074755 0.041778 0.383559 255 100 100
-0.405651 0.028409 -0.223797 255 100 100
0.013181 0.124959 -0.203077 255 100 100
0.095413 0.188946 -0.123008 255 100 100
-0.029506 -0.137325 -0.065753 255 100 100
-0.001025 -0.154466 0.034120 255 100 100
0.322915 -0.082697 -0.261362 255 100 100
-0.181841 0.171984 0.293855 255 100 100
-0.222405 -0.596143 -0.395804 255 100 100
-0.109560 -0.039583 -0.103174 255 100 100
0.011642 -0.034524 -0.147417 255 100 100
0.078880 -0.058962 -0.303775 255 100 100
-0.102160 0.279007 0.238402 255 100 100
0.312755 -0.138356 -0.317339 255 100 100
-0.153849 -0.114620 0.255741 255 100 100
0.194717 -0.303896 -0.351412 255 100 100
0.244606 -0.429305 -0.196588 255 100 100
-0.069669 -0.229650 -0.057455 255 100 100
-0.256650 0.121201 0.196510 255 100 100
-0.065030 0.055203 0.333113 255 100 100
0.191215 -0.362368 -0.081219 255 100 100
0.098232 0.200579 -0.025777 255 100 100
-0.057384 -0.675461 -0.050419 255 100 100
0.296987 0.333849 0.010118 255 100 100
0.246217 -0.055608 -0.250099 255 100 100
-0.136878 0.286174 -0.107487 255 100 100
0.008967 0.090015 -0.110736 255 100 100
-0.011361 -0.258519 -0.233401 255 100 100
-0.023412 -0.441351 -0.017911 255 100 100
-0.057955 0.279820 0.384198 255 100 100
0.021355 -0.267159 0.217227 255 100 100
-0.008049 -0.128859 -0.017988 255 100 100
0.029084 -0.106522 -0.226087 255 100 100
0.021963 0.212433 -0.289559 255 100 100
-0.002315 0.184259 -0.127218 255 100 100
-0.030435 -0.482909 0.069315 255 100 100
-0.011071 -0.130113 0.070520 255 100 100
0.229922 -0.225952 0.688606 255 100 100
-0.198833 -0.201373 -0.171792 255 100 100
0.325693 0.231482 -0.164702 255 100 100
-0.168883 -0.255726 0.104335 255 100 100
-0.030013 -0.100821 0.285782 255 100 100
-0.118801 0.016372 0.154381 255 100 100
0.417951 0.080150 -0.407297 255 100 100
0.230655 0.062314 -0.257619 255 100 100
0.046978 -0.086487 -0.198746 255 100 100
0.366799 0.350443 0.275569 255 100 100
0.315171 0.193254 -0.285382 255 100 100
-0.131263 0.242001 -0.016078 255 100 100
-0.003593 -0.162254 0.184521 255 100 100
0.177221 -0.283880 -0.216241 255 100 100
-0.079256 0.104035 0.276401 255 100 100
-0.140446 0.170983 0.648616 255 100 100
0.111365 -0.390854 -0.048039 255 100 100
0.064655 -0.045492 -0.065860 255 100 100
-0.127631 0.035556 0.242604 255 100 100
-0.109754 -0.207857 -0.026351 255 100 100
0.173724 -0.008898 -0.240270 255 100 100
0.057360 -0.061013 0.411368 255 100 100
-0.209940 0.254915 0.692029 255 100 100
-0.048175 0.179294 0.558964 255 100 100
0.031539 -0.277314 0.286765 255 100 100
0.121654 -0.181184 -0.267647 255 100 100
0.061187 0.189616 -0.384008 255 100 100
0.204760 0.251665 0.043038 255 100 100
-0.333827 0.122277 0.055561 255 100 100
-0.002750 -0.038701 0.044979 255 100 100
-0.109506 -0.226717 -0.142250 255 100 100
-0.099697 -0.050904 -0.247348 255 100 100
-0.220018 -0.401673 0.248854 255 100 100
-0.375801 0.078733 -0.276038 255 100 100
-0.077616 0.007373 0.271459 255 100 100
-0.299377 0.104570 0.172144 255 100 100
-0.094400 -0.172097 -0.158996 255 100 100
0.431219 0.051356 -0.358597 255 100 100
-0.201223 0.134780 -0.132889 255 100 100
0.285012 0.128550 -0.181149 255 100 100
-0.463820 -0.223635 -0.194636 255 100 100
-0.373597 -0.078724 0.137885 255 100 100
0.138725 0.281457 0.090816 255 100 100
-0.050723 0.087538 0.336950 255 100 100
-0.420903 -0.002249 -0.116721 255 100 100
0.406714 -0.171319 -0.290230 255 100 100
0.011980 0.016146 0.410953 255 100 100
-0.034245 -0.106232 0.178005 255 100 100
0.095477 0.275560 0.306076 255 100 100
-0.139559 0.201856 -0.122449 255 100 100
-0.157035 0.047287 0.088680 255 100 100
0.064204 0.222263 0.161049 255 100 100
0.446550 0.171586 -0.129742 255 100 100
-0.168177 0.153696 0.223043 255 100 100
-0.356584 -0.323313 0.078661 255 100 100
0.204147 -0.204413 -0.406263 255 100 100
0.196918 0.194800 -0.152155 255 100 100
0.054183 -0.318646 0.066397 255 100 100
-0.044088 -0.073697 -0.079620 255 100 100
-0.078972 -0.130799 -0.135999 255 100 100
-0.006877 0.022601 0.035748 255 100 100
0.000563 0.185818 0.076702 255 100 100
-0.139593 -0.366075 0.139831 255 100 100
-0.013004 0.163830 0.336676 255 100 100
0.129658 -0.071100 -0.199294 255 100 100
-0.502763 0.259825 0.158157 255 100 100
-0.136689 0.110232 -0.373278 255 100 100
0.277364 -0.471288 0.397874 255 100 100
-0.138196 -0.342747 0.529272 255 100 100
0.355844 0.380302 0.335238 255 100 100
0.114789 -0.238224 0.490681 255 100 100
0.040052 -0.284974 0.302085 255 100 100
-0.051365 0.050766 -0.253340 255 100 100
-0.003874 -0.072793 -0.092441 255 100 100
0.207060 0.154124 -0.221517 255 100 100
0.020597 0.051231 0.176471 255 100 100
-0.209135 0.037713 -0.029115 255 100 100
0.040354 -0.074090 0.588317 255 100 100
0.034957 0.196421 0.331000 255 100 100
-0.090862 -0.049114 0.499974 255 100 100
-0.098528 -0.255278 0.270460 255 100 100
0.288488 0.311112 -0.120712 255 100 100
0.081960 0.254011 0.082854 255 100 100
-0.044394 0.251025 0.200135 255 100 100
0.039038 0.149993 -0.130440 255 100 100
0.107778 -0.015135 -0.140639 255 100 100
-0.014002 0.002234 -0.126918 255 100 100
-0.344744 0.106590 0.178662 255 100 100
0.090580 0.128801 -0.096692 255 100 100
-0.029735 0.048581 -0.029225 255 100 100
-0.025028 -0.417787 0.164986 255 100 100
0.088608 0.190968 -0.175522 255 100 100
-0.031052 0.324599 0.111682 255 100 100
-0.088529 -0.272997 0.321374 255 100 100
-0.032964 -0.283502 -0.404077 255 100 100
-0.123645 -0.049394 0.072387 255 100 100
-0.010979 0.057328 0.172763 255 100 100
0.040955 0.103931 -0.241907 255 100 100
0.547754 0.339549 0.201868 255 100 100
-0.088467 -0.182310 -0.224624 255 100 100
0.116479 0.016704 0.463546 255 100 100
-0.357939 -0.245375 0.291109 255 100 100
-0.001357 0.343316 0.144891 255 100 100
0.078743 -0.177304 -0.110379 255 100 100
0.015392 -0.431931 0.035363 255 100 100
-0.326650 0.289440 0.002603 255 100 100
-0.360424 -0.043771 0.256575 255 100 100
0.424848 0.045656 -0.310515 255 100 100
-0.235185 0.165187 -0.165760 255 100 100
0.036493 -0.178049 -0.009655 255 100 100
0.000824 -0.144881 0.079991 255 100 100
-0.172463 -0.031723 -0.279321 255 100 100
-0.182855 -0.148987 -0.043887 255 100 100
-0.171576 -0.047632 -0.006450 255 100 100
0.471217 -0.161363 -0.347219 255 100 100
0.066410 0.119332 0.242313 255 100 100
-0.255031 0.244368 -0.314100 255 100 100
0.515733 0.185684 -0.282862 255 100 100
-0.373105 0.038311 0.369732 255 100 100
-0.104600 0.107986 -0.278516 255 100 100
-0.135567 0.024135 0.145953 255 100 100
-0.076360 -0.126318 0.068495 255 100 100
0.167427 0.243199 -0.187802 255 100 100
0.052647 0.029252 -0.201632 255 100 100
-0.070950 -0.312280 0.052846 255 100 100
-0.010174 0.233540 -0.009521 255 100 100
-0.017550 -0.153233 -0.174636 255 100 100
0.201555 0.048767 -0.265454 255 100 100
-0.037270 0.100455 -0.003615 255 100 100
0.003000 0.151888 -0.057262 255 100 100
0.529629 -0.032827 -0.416997 255 100 100
-0.072712 0.052266 -0.315368 255 100 100
0.090437 -0.286287 -0.401016 255 100 100
-0.167658 0.132883 0.237448 255 100 100
0.313520 0.260622 -0.470919 255 100 100
0.306217 0.269089 -0.048294 255 100 100
0.051679 -0.087459 -0.218742 255 100 100
-0.150472 0.025602 0.081187 255 100 100
-0.179205 -0.070139 0.090618 255 100 100
-0.104430 -0.096954 -0.260270 255 100 100
-0.056222 -0.260903 -0.429032 255 100 100
0.105253 0.350417 0.203525 255 100 100
0.014817 0.026372 0.032518 255 100 100
0.469399 -0.493511 -0.004225 255 100 100
0.005584 0.375291 -0.194839 255 100 100
-0.222093 -0.107381 -0.291451 255 100 100
-0.091032 -0.053569 -0.110509 255 100 100
-0.213148 -0.278135 0.161771 255 100 100
0.008214 -0.120107 -0.216120 255 100 100
0.015284 0.108088 0.360123 255 100 100
-0.312827 0.013977 -0.173936 255 100 100
0.220154 -0.181466 -0.200366 255 100 100
0.064233 0.013671 -0.097998 255 100 100
-0.176654 -0.139279 0.043940 255 100 100
-0.213640 0.066416 -0.039421 255 100 100
-0.271951 -0.003609 0.241907 255 100 100
-0.336346 -0.146809 0.051460 255 100 100
-0.005358 -0.122101 -0.166878 255 100 100
-0.112971 -0.317613 -0.063738 255 100 100
0.032208 0.114767 -0.322240 255 100 100
0.048672 0.138219 0.055939 255 100 100
0.183487 0.081483 -0.226867 255 100 100
0.025002 -0.324086 0.345334 255 100 100
-0.075159 0.061060 0.114163 255 100 100
0.164766 0.189908 -0.258594 255 100 100
-0.046120 0.005962 0.153799 255 100 100
0.198568 0.270468 0.203066 255 100 100
-0.541325 0.140603 -0.333483 255 100 100
0.100585 0.265168 -0.089979 255 100 100
-0.000179 0.305557 -0.209577 255 100 100
-0.084176 -0.229780 0.288749 255 100 100
0.081977 0.271400 -0.048987 255 100 100
-0.103589 -0.099169 -0.169625 255 100 100
0.143133 0.006056 -0.567399 255 100 100
0.593395 -0.011152 -0.368011 255 100 100
-0.041303 -0.146858 0.042863 255 100 100
0.056938 0.385483 0.131567 255 100 100
0.459041 -0.604588 0.079564 255 100 100
0.089721 -0.361785 -0.082172 255 100 100
-0.154020 -0.048659 0.305430 255 100 100
0.280376 -0.140458 -0.225472 255 100 100
0.063132 0.008618 -0.298444 255 100 100
-0.193090 0.167965 0.050983 255 100 100
-0.015821 0.256538 0.546249 255 100 100
-0.217354 0.243493 0.166760 255 100 100
-0.073789 0.153172 -0.117773 255 100 100
-0.037403 -0.232696 0.149157 255 100 100
-0.063080 0.096948 -0.088971 255 100 100
-0.121397 0.150635 -0.245994 255 100 100
-0.268428 -0.415498 -0.023071 255 100 100
-0.073954 0.308690 0.155689 255 100 100
-0.042405 -0.168479 0.352680 255 100 100
-0.169828 -0.130673 -0.274945 255 100 100
-0.149489 0.282059 0.222704 255 100 100
-0.184313 0.143852 0.000536 255 100 100
0.116490 -0.324160 -0.153570 255 100 100
-0.115180 0.017724 -0.100287 255 100 100
-0.029508 -0.124065 -0.123951 255 100 100
-0.192808 -0.128283 0.205096 255 100 100
-0.111895 0.314200 -0.334747 255 100 100
-0.034699 0.043669 0.085331 255 100 100
0.004913 -0.017121 0.074070 255 100 100
-0.161485 -0.144602 0.107577 255 100 100
0.227143 0.421413 -0.170674 255 100 100
-0.609413 0.068866 -0.036306 255 100 100
-0.138202 0.123047 0.452456 255 100 100
-0.237164 0.162558 0.323795 255 100 100
-0.332373 -0.004013 0.349779 255 100 100
-0.165396 -0.007025 -0.088950 255 100 100
0.324040 0.242414 -0.101559 255 100 100
0.466957 0.200913 -0.203041 255 100 100
0.575253 -0.436327 0.033330 255 100 100
-0.006106 0.052399 -0.117345 255 100 100
-0.353235 0.018189 -0.217427 255 100 100
-0.235295 -0.052791 0.091928 255 100 100
-0.220689 0.091671 0.210387 255 100 100
-0.132803 0.203387 -0.013954 255 100 100
0.062801 0.040970 -0.233422 255 100 100
-0.131661 0.177749 0.124507 255 100 100
-0.219605 0.189369 -0.335688 255 100 100
-0.215149 -0.044607 -0.239866 255 100 100
0.022028 0.064015 0.166452 255 100 100
-0.317965 -0.021718 -0.276709 255 100 100
0.448962 -0.278571 -0.489748 255 100 100
-0.211186 0.267872 -0.199039 255 100 100
-0.072365 0.047257 -0.398661 255 100 100
-0.149090 -0.321910 0.017775 255 100 100
0.050392 -0.042688 -0.068266 255 100 100
-0.156805 -0.341899 0.074419 255 100 100
0.152485 -0.338432 -0.089544 255 100 100
-0.207296 0.048666 0.226079 255 100 100
0.046861 0.169888 -0.298946 255 100 100
-0.023495 -0.014083 -0.008401 255 100 100
0.187847 0.367728 0.405604 255 100 100
0.052385 0.188917 -0.214404 255 100 100
0.183190 0.340740 -0.031978 255 100 100
-0.083680 0.246052 0.181024 255 100 100
-0.038700 0.125555 -0.008027 255 100 100
-0.292857 -0.142808 -0.168500 255 100 100
-0.033442 0.019495 0.052125 255 100 100
0.044388 0.053413 -0.171477 255 100 100
-0.183311 -0.173232 0.131831 255 100 100
0.079910 -0.504389 -0.012240 255 100 100
0.105755 0.342809 0.181437 255 100 100
-0.252630 0.006060 -0.122098 255 100 100
-0.051081 0.244949 -0.273647 255 100 100
-0.021368 -0.189029 -0.213718 255 100 100
-0.017043 -0.062122 -0.305675 255 100 100
0.483989 -0.005988 -0.224988 255 100 100
0.242846 0.038012 -0.259230 255 100 100
-0.435811 -0.129520 0.298319 255 100 100
0.324552 -0.010101 -0.225600 255 100 100
0.245527 0.436364 0.308347 255 100 100
-0.076469 -0.204275 0.067128 255 100 100
-0.675335 0.393049 -0.025590 255 100 100
-0.041711 -0.404488 0.196095 255 100 100
-0.138929 0.118509 0.064824 255 100 100
-0.078912 -0.311884 0.260532 255 100 100
-0.186767 0.010613 0.390516 255 100 100
-0.042910 -0.352364 -0.010741 255 100 100
-0.021553 -0.329216 -0.200094 255 100 100
0.108717 0.080344 -0.315937 255 100 100
-0.059622 -0.059151 0.371515 255 100 100
0.526315 -0.198851 -0.224050 255 100 100
-0.193152 -0.347437 -0.348062 255 100 100
0.129073 0.215928 -0.102599 255 100 100
0.282979 0.153874 -0.198646 255 100 100
0.011294 0.129419 0.141858 255 100 100
-0.120445 -0.062914 0.179555 255 100 100
-0.007682 0.071056 -0.198125 255 100 100
-0.206052 0.114510 0.243672 255 100 100
0.003309 0.111034 -0.124134 255 100 100
0.012831 -0.167782 -0.017209 255 100 100
0.017415 0.380319 0.134902 255 100 100
-0.217784 -0.060234 -0.026651 255 100 100
-0.041725 0.543659 0.006300 255 100 100
-0.141775 -0.262864 0.197589 255 100 100
-0.106577 -0.285057 -0.072985 255 100 100
0.209069 0.300694 0.416661 255 100 100
-0.185534 0.030298 0.188586 255 100 100
-0.186235 0.470563 -0.009352 255 100 100
0.073309 -0.154028 -0.136015 255 100 100
0.219291 0.169668 -0.234484 255 100 100
-0.167530 -0.331102 0.426066 255 100 100
0.531520 0.186659 0.437915 255 100 100
-0.099623 -0.328954 -0.024317 255 100 100
-0.364311 -0.125459 -0.037577 255 100 100
-0.174754 0.103559 -0.162345 255 100 100
0.149082 0.326398 -0.056745 255 100 100
-0.306877 -0.059827 -0.213086 255 100 100
0.190066 0.153229 -0.186372 255 100 100
0.045461 0.206564 0.202392 255 100 100
-0.361051 0.130399 -0.086285 255 100 100
-0.386775 0.073572 0.465555 255 100 100
0.071495 0.061119 -0.098490 255 100 100
0.135985 -0.197193 -0.156699 255 100 100
0.138677 0.547791 -0.139188 255 100 100
0.449261 0.417614 0.021237 255 100 100
0.176115 -0.092435 0.591228 255 100 100
-0.227995 -0.335343 -0.112586 255 100 100
0.066328 -0.265825 -0.119347 255 100 100
0.006933 -0.221554 0.210341 255 100 100
0.267653 -0.037710 -0.267203 255 100 100
0.235278 -0.115141 0.524448 255 100 100
-0.062038 -0.017098 -0.126779 255 100 100
-0.104588 0.210669 -0.284938 255 100 100
-0.065453 0.107219 0.118209 255 100 100
-0.212359 -0.131939 0.086384 255 100 100
-0.196390 0.265447 0.130509 255 100 100
-0.121342 0.195506 -0.231087 255 100 100
-0.125756 -0.355394 -0.040708 255 100 100
0.002989 0.169109 0.350910 255 100 100
0.079401 0.138909 0.338620 255 100 100
0.211146 0.105701 0.483031 255 100 100
0.119148 -0.168645 0.504003 255 100 100
-0.110301 0.014565 0.412489 255 100 100
0.024708 -0.071019 -0.151812 255 100 100
0.049401 0.378656 -0.079163 255 100 100
-0.135004 -0.112641 -0.046095 255 100 100
0.003220 -0.287704 0.181060 255 100 100
-0.166879 0.097837 0.127401 255 100 100
0.140546 -0.263384 -0.125372 255 100 100
0.024462 0.331766 0.218679 255 100 100
0.322070 0.446034 -0.460893 255 100 100
-0.027131 0.160229 0.161612 255 100 100
0.432752 0.078924 -0.205083 255 100 100
0.108466 -0.318452 -0.150598 255 100 100
0.196623 0.333587 0.287062 255 100 100
-0.022210 -0.483751 -0.025995 255 100 100
-0.234666 0.114471 0.411573 255 100 100
0.256899 -0.556020 0.049144 255 100 100
-0.025780 0.082653 0.525386 255 100 100
-0.203668 -0.052725 0.438754 255 100 100
-0.116024 0.098496 -0.230749 255 100 100
-0.283254 -0.139794 0.129225 255 100 100
0.288258 -0.288831 -0.412877 255 100 100
0.213359 0.279483 0.124243 255 100 100
-0.138740 -0.026079 0.139079 255 100 100
0.036571 0.346212 0.041542 255 100 100
0.036344 0.135894 -0.371220 255 100 100
-0.195412 -0.096383 -0.037278 255 100 100
-0.118846 -0.217909 0.317269 255 100 100
-0.250659 0.186702 -0.123948 255 100 100
-0.114124 -0.185075 0.128148 255 100 100
-0.204279 -0.427292 -0.054751 255 100 100
0.389469 -0.468123 -0.010593 255 100 100
-0.039888 0.183933 0.705260 255 100 100
0.343984 0.197810 -0.147363 255 100 100
0.274016 -0.175225 -0.336695 255 100 100
-0.157156 0.260266 0.208584 255 100 100
0.362367 -0.140652 0.580890 255 100 100
0.289694 -0.162364 -0.262115 255 100 100
-0.262492 0.069872 0.158495 255 100 100
-0.119273 0.155611 -0.253455 255 100 100
0.017060 0.103120 0.225681 255 100 100
-0.173339 0.203807 0.157038 255 100 100
0.252529 0.315878 -0.201947 255 100 100
0.045048 0.008310 -0.110046 255 100 100
-0.040952 0.110302 0.184323 255 100 100
-0.137762 -0.221216 -0.163682 255 100 100
0.032650 0.300592 0.023559 255 100 100
0.289969 -0.329324 -0.195502 255 100 100
-0.042506 -0.047731 0.360934 255 100 100
0.701417 0.334951 -0.278484 255 100 100
-0.137714 0.190103 0.117764 255 100 100
0.000854 0.282680 0.125569 255 100 100
0.017754 -0.191889 -0.211453 255 100 100
-0.192435 0.222299 0.021712 255 100 100
-0.302501 0.073077 0.000673 255 100 100
0.271892 0.370339 0.153765 255 100 100
0.083406 0.094042 -0.023455 255 100 100
-0.095324 -0.168577 0.518467 255 100 100
-0.032368 0.211533 -0.306599 255 100 100
0.197087 -0.454699 0.166291 255 100 100
-0.021073 -0.271220 0.125198 255 100 100
-0.006701 0.103440 0.454080 255 100 100
0.367822 0.336558 0.015629 255 100 100
0.229331 0.236126 -0.124369 255 100 100
-0.067864 0.035554 -0.134204 255 100 100
-0.458407 -0.036129 -0.130057 255 100 100
0.212035 0.496153 -0.326896 255 100 100
0.030070 -0.105236 -0.118665 255 100 100
-0.003983 -0.313379 -0.055616 255 100 100
-0.185791 0.010761 0.533878 255 100 100
-0.110092 -0.372692 -0.339267 255 100 100
0.129666 0.377241 0.123728 255 100 100
0.168234 -0.287360 -0.127529 255 100 100
-0.035518 -0.204313 0.095027 255 100 100
0.281690 0.095665 -0.436620 255 100 100
0.043503 0.262417 -0.127298 255 100 100
0.616570 0.194580 0.504130 255 100 100
-0.245653 0.201836 0.365458 255 100 100
-0.320538 -0.193450 0.180274 255 100 100
0.157809 0.338333 -0.121023 255 100 100
0.404341 0.311895 -0.031390 255 100 100
-0.121966 0.251409 0.132004 255 100 100
0.121555 0.349077 0.413481 255 100 100
0.002222 -0.322258 -0.056146 255 100 100
-0.273763 -0.141098 -0.285659 255 100 100
-0.129811 0.146714 -0.171816 255 100 100
-0.136767 -0.159463 -0.240704 255 100 100
-0.095644 0.433484 -0.202931 255 100 100
-0.067944 0.024371 0.152498 255 100 100
-0.007015 0.455695 -0.075076 255 100 100
-0.074663 0.082049 0.129753 255 100 100
0.061989 -0.205801 -0.066593 255 100 100
-0.030327 -0.603351 0.093943 255 100 100
0.018304 0.047299 0.305463 255 100 100
-0.189938 0.256846 -0.062612 255 100 100
-0.179160 0.031107 -0.341997 255 100 100
0.225542 0.037351 -0.256073 255 100 100
0.092717 -0.283733 0.464937 255 100 100
-0.266677 -0.035434 -0.147166 255 100 100
-0.012854 -0.102953 0.108761 255 100 100
-0.379410 -0.419121 -0.181920 255 100 100
0.068064 0.020956 -0.051929 255 100 100
-0.071841 0.023994 -0.322573 255 100 100
-0.119590 -0.123421 -0.077169 255 100 100
0.348937 -0.020918 -0.490521 255 100 100
0.289633 -0.199270 -0.220615 255 100 100
-0.487017 0.069002 -0.510907 255 100 100
0.191520 0.403105 -0.299339 255 100 100
0.138968 -0.067578 -0.410830 255 100 100
0.012674 -0.097423 0.451662 255 100 100
0.178658 0.196839 0.439065 255 100 100
-0.186782 0.133855 -0.096809 255 100 100
0.325674 0.465661 -0.099326 255 100 100
-0.257816 -0.392258 0.439197 255 100 100
0.530386 -0.108068 -0.394367 255 100 100
-0.236037 -0.326132 0.118745 255 100 100
-0.048435 -0.235619 0.179967 255 100 100
-0.143913 -0.294118 0.363094 255 100 100
0.197082 -0.126110 0.500354 255 100 100
0.177384 -0.458568 0.024945 255 100 100
0.189829 0.304125 0.153382 255 100 100
-0.005385 0.071524 0.061803 255 100 100
0.073790 0.405115 0.174851 255 100 100
-0.091394 0.085297 -0.216290 255 100 100
-0.106393 0.075764 0.091543 255 100 100
-0.293394 -0.184047 -0.123230 255 100 100
-0.196964 -0.019399 -0.115537 255 100 100
0.494047 0.049772 -0.290996 255 100 100
-0.150589 0.075377 0.044340 255 100 100
0.076881 -0.156442 -0.380984 255 100 100
-0.296500 -0.103688 0.268444 255 100 100
0.135610 0.030986 -0.142658 255 100 100
-0.211013 -0.075048 0.058742 255 100 100
-0.051227 0.323825 -0.061702 255 100 100
0.264425 -0.139076 -0.351678 255 100 100
0.181454 -0.283286 -0.184554 255 100 100
-0.278664 -0.227048 0.110558 255 100 100
0.077773 0.217923 0.017496 255 100 100
-0.180575 -0.447176 0.407421 255 100 100
-0.093822 0.050015 -0.041430 255 100 100
-0.267293 -0.102031 0.065434 255 100 100
-0.255994 0.250411 0.007573 255 100 100
0.167803 -0.025745 -0.358854 255 100 100
-0.005959 -0.639033 -0.115214 255 100 100
-0.022071 -0.071783 0.062217 255 100 100
-0.059047 -0.116443 -0.010508 255 100 100
-0.088041 0.300015 -0.189819 255 100 100
0.240670 0.080672 -0.176798 255 100 100
0.490779 -0.040288 0.595047 255 100 100
0.563362 0.527183 -0.036422 255 100 100
0.223021 0.007328 0.541407 255 100 100
-0.140215 0.204982 -0.120858 255 100 100
0.139545 -0.295118 -0.117352 255 100 100
-0.013831 0.410211 0.043676 255 100 100
-0.257377 -0.212505 0.034209 255 100 100
-0.056997 -0.141442 -0.025548 255 100 100
-0.135024 0.238843 0.090891 255 100 100
0.384332 0.287342 0.257671 255 100 100
0.064195 -0.054209 0.425211 255 100 100
-0.102310 -0.057173 0.342040 255 100 100
-0.190310 0.188310 -0.142926 255 100 100
0.199188 -0.244488 -0.529962 255 100 100
-0.310412 -0.369765 0.104929 255 100 100
-0.156687 -0.202280 0.007749 255 100 100
0.070915 0.179557 0.249097 255 100 100
-0.052884 0.573399 0.450911 255 100 100
-0.254110 -0.274431 -0.214580 255 100 100
-0.104460 -0.051163 -0.323929 255 100 100
0.113498 -0.014999 -0.215077 255 100 100
-0.089112 0.009396 -0.108440 255 100 100
-0.091884 -0.136576 0.068203 255 100 100
-0.020792 -0.537177 -0.095290 255 100 100
-0.148177 0.045171 0.337029 255 100 100
0.453538 0.057129 -0.294887 255 100 100
0.127937 0.236539 -0.158224 255 100 100
-0.082081 -0.142579 -0.132507 255 100 100
0.049999 -0.248091 -0.048161 255 100 100
-0.035245 0.009620 0.246266 255 100 100
0.254290 0.353931 0.133074 255 100 100
-0.428076 0.095742 -0.344037 255 100 100
-0.165277 -0.016669 0.221053 255 100 100
-0.175677 -0.018389 0.255031 255 100 100
-0.164482 -0.243421 0.339747 255 100 100
0.003327 0.023171 0.128238 255 100 100
-0.082934 -0.107941 0.089009 255 100 100
-0.427370 0.109941 0.251013 255 100 100
-0.006092 0.109031 -0.252764 255 100 100
-0.005646 0.445534 0.063725 255 100 100
-0.199790 0.141834 0.177133 255 100 100
-0.081676 -0.029839 0.010697 255 100 100
-0.268443 -0.124787 0.073985 255 100 100
0.123780 -0.001121 0.563318 255 100 100
0.042443 -0.017131 -0.119954 255 100 100
0.149804 0.256484 -0.002220 255 100 100
-0.173697 -0.433915 0.382681 255 100 100
-0.026490 -0.167866 -0.015266 255 100 100
-0.283393 0.178309 -0.205805 255 100 100
0.060467 0.038750 -0.454697 255 100 100
-0.104304 0.071600 -0.109729 255 100 100
-0.032861 0.052097 -0.041434 255 100 100
-0.045923 -0.247652 -0.100185 255 100 100
-0.289833 0.101584 -0.254809 255 100 100
0.080506 0.329241 0.154226 255 100 100
-0.000704 0.185269 0.378697 255 100 100
0.293728 0.326357 0.036918 255 100 100
-0.233799 0.257444 0.094593 255 100 100
-0.060039 -0.179077 -0.136857 255 100 100
-0.055131 0.032335 0.180043 255 100 100
-0.097867 -0.019662 0.158423 255 100 100
0.473033 0.265660 -0.084652 255 100 100
0.380567 0.514502 0.121524 255 100 100
0.162198 0.051021 -0.232021 255 100 100
0.020181 0.163473 0.135801 255 100 100
0.549898 0.008602 -0.246939 255 100 100
0.117519 0.313440 -0.265390 255 100 100
0.255075 -0.327768 -0.141480 255 100 100
0.130458 -0.136510 0.536631 255 100 100
-0.261246 -0.103906 0.440911 255 100 100
-0.059045 0.037569 -0.099536 255 100 100
-0.036524 0.374440 -0.265095 255 100 100
0.032001 0.163890 0.154837 255 100 100
-0.172794 0.093908 -0.185093 255 100 100
0.340706 0.276855 0.346431 255 100 100
-0.141989 -0.118916 0.117198 255 100 100
-0.394499 -0.031797 -0.037255 255 100 100
0.142973 -0.118034 -0.270813 255 100 100
0.264308 -0.456638 -0.146644 255 100 100
-0.164597 -0.031133 0.046449 255 100 100
0.182371 -0.230221 -0.306583 255 100 100
-0.187903 0.137993 -0.005401 255 100 100
-0.157882 -0.030576 0.508364 255 100 100
-0.036680 0.176994 -0.190816 255 100 100
0.245527 0.362419 0.572420 255 100 100
-0.062169 -0.381961 0.007068 255 100 100
0.083292 0.204437 0.078758 255 100 100
0.048984 0.019814 -0.316249 255 100 100
0.063131 -0.223706 -0.169783 255 100 100
0.129346 0.230505 -0.431504 255 100 100
-0.205259 0.030811 0.122842 255 100 100
-0.023700 0.404472 0.197728 255 100 100
0.107390 0.247624 0.333060 255 100 100
-0.150797 -0.134716 -0.017798 255 100 100
-0.054607 -0.492946 0.058111 255 100 100
-0.042088 -0.061068 0.186485 255 100 100
-0.523703 -0.268660 -0.105254 255 100 100
-0.099574 -0.010785 0.370659 255 100 100
0.086875 -0.370594 0.218693 255 100 100
-0.038745 -0.405293 0.193783 255 100 100
-0.006073 -0.226156 0.176111 255 100 100
0.274857 -0.300051 0.790649 255 100 100
0.010031 -0.294617 -0.238052 255 100 100
0.043806 0.059212 -0.077902 255 100 100
-0.280604 -0.475131 -0.380363 255 100 100
-0.293810 0.371447 0.110112 255 100 100
-0.032602 0.243527 -0.214278 255 100 100
0.163551 -0.123064 -0.262564 255 100 100
0.397933 0.362268 -0.254348 255 100 100
0.245215 0.208363 -0.164053 255 100 100
-0.220699 -0.116756 0.225383 255 100 100
-0.092363 -0.429731 0.379137 255 100 100
-0.146502 -0.531574 0.067820 255 100 100
0.080483 0.050134 -0.206598 255 100 100
-0.021709 0.073980 0.069937 255 100 100
0.133638 -0.006567 -0.139146 255 100 100
-0.098977 -0.327577 0.190800 255 100 100
0.072455 0.280665 -0.016508 255 100 100
-0.055495 0.034778 -0.197175 255 100 100
-0.293565 -0.157351 0.128118 255 100 100
-0.084294 -0.245830 0.204703 255 100 100
0.507447 0.113869 -0.183467 255 100 100
0.337386 -0.378310 -0.516599 255 100 100
0.088102 0.300526 0.020873 255 100 100
0.001265 -0.007934 -0.015981 255 100 100
-0.178991 -0.529775 -0.164369 255 100 100
-0.144235 -0.045836 -0.003924 255 100 100
-0.023772 0.122862 -0.053307 255 100 100
0.039316 -0.471485 -0.217194 255 100 100
-0.193090 -0.505345 0.167477 255 100 100
-0.262629 0.396191 0.193125 255 100 100
0.155149 0.211190 0.251556 255 100 100
-0.030420 0.290299 -0.515355 255 100 100
-0.192173 -0.380164 0.164261 255 100 100
-0.281031 0.182818 0.030565 255 100 100
0.253368 0.214076 0.445497 255 100 100
-0.029263 0.217714 0.193170 255 100 100
-0.102102 0.011512 -0.128158 255 100 100
0.029176 0.056143 0.055362 255 100 100
0.007505 -0.005285 0.414469 255 100 100
-0.234595 0.037568 -0.415083 255 100 100
-0.040492 0.088669 0.094870 255 100 100
0.263076 0.271146 0.068380 255 100 100
0.041631 0.005259 0.341791 255 100 100
0.396044 -0.146913 0.545861 255 100 100
0.033725 0.129660 0.085197 255 100 100
-0.083399 0.180297 -0.101132 255 100 100
-0.021039 0.035955 -0.247817 255 100 100
-0.211248 -0.055900 0.193414 255 100 100
0.305678 0.418735 0.264523 255 100 100
-0.098255 -0.014677 0.099227 255 100 100
-0.012731 -0.076978 -0.204588 255 100 100
0.201396 -0.661010 -0.027966 255 100 100
-0.329296 0.074066 0.042601 255 100 100
-0.164936 0.038675 -0.047023 255 100 100
-0.073695 -0.104879 -0.061876 255 100 100
-0.372780 -0.372120 0.332136 255 100 100
0.139546 0.394019 0.083004 255 100 100
0.085541 -0.438640 0.008374 255 100 100
-0.205547 -0.066857 -0.215620 255 100 100
0.337972 0.408616 0.071870 255 100 100
-0.073605 -0.154465 0.035564 255 100 100
0.227615 0.238783 -0.318554 255 100 100
-0.137424 -0.435844 -0.401780 255 100 100
-0.182976 -0.328014 -0.144945 255 100 100
-0.056552 0.041062 0.566493 255 100 100
0.235831 0.476554 -0.041981 255 100 100
-0.038490 -0.060389 0.306220 255 100 100
0.070411 0.494353 -0.119530 255 100 100
0.122308 -0.264838 0.509937 255 100 100
0.092575 0.220307 -0.347305 255 100 100
-0.092871 -0.167746 0.130242 255 100 100
-0.014834 0.176632 0.317315 255 100 100
-0.381278 -0.125664 -0.078955 255 100 100
0.302111 0.110120 -0.422446 255 100 100
-0.326939 0.092498 0.115434 255 100 100
0.356102 0.052103 -0.284227 255 100 100
0.017168 -0.130823 -0.074425 255 100 100
0.248893 0.150327 -0.331262 255 100 100
0.110633 0.466956 0.251473 255 100 100
0.511750 -0.318748 0.496089 255 100 100
-0.011358 -0.091027 -0.175915 255 100 100
0.310597 -0.221398 -0.285861 255 100 100
-0.175264 -0.348613 -0.418572 255 100 100
-0.127773 0.376120 0.094053 255 100 100
0.251194 -0.116918 -0.407203 255 100 100
0.275059 0.168023 -0.198009 255 100 100
0.002484 0.103718 0.087281 255 100 100
-0.303507 0.185604 0.142457 255 100 100
-0.106652 -0.456139 0.196995 255 100 100
-0.201206 -0.108649 -0.095590 255 100 100
-0.424586 -0.162226 0.003879 255 100 100
-0.009676 -0.283883 0.046608 255 100 100
0.115678 0.229507 -0.093839 255 100 100
0.119857 0.044981 -0.389818 255 100 100
0.012033 0.135307 -0.136856 255 100 100
0.077589 -0.336867 -0.365999 255 100 100
-0.071892 -0.251545 -0.403353 255 100 100
0.290071 0.401993 0.178785 255 100 100
-0.062749 0.401907 0.048322 255 100 100
-0.042744 0.260558 -0.292327 255 100 100
-0.280263 -0.253432 -0.561395 255 100 100
0.036978 0.235739 0.311963 255 100 100
-0.213727 0.046118 0.111272 255 100 100
-0.167065 -0.099466 0.145676 255 100 100
-0.126554 -0.226265 0.246847 255 100 100
0.133169 0.244982 -0.195354 255 100 100
0.040730 0.469292 -0.307486 255 100 100
0.012715 0.220674 -0.348575 255 100 100
0.173319 0.320951 0.053153 255 100 100
-0.083627 0.358203 0.045754 255 100 100
0.085895 0.354423 0.150029 255 100 100
-0.137027 0.086638 -0.272009 255 100 100
0.005411 -0.087918 -0.034789 255 100 100
0.286477 0.502433 -0.057091 255 100 100
0.020165 0.078067 0.172489 255 100 100
-0.008200 0.133107 -0.214445 255 100 100
-0.094714 0.284464 0.057311 255 100 100
-0.236456 0.235428 0.064287 255 100 100
0.113833 -0.287370 -0.302406 255 100 100
0.564609 0.363748 0.309296 255 100 100
-0.091814 -0.041431 -0.007459 255 100 100
-0.010032 0.211064 0.063968 255 100 100
0.330670 0.212633 -0.192495 255 100 100
-0.109367 0.012970 -0.062180 255 100 100
-0.051428 0.452887 0.116408 255 100 100
-0.024125 0.070344 -0.028770 255 100 100
-0.223464 -0.090778 -0.010195 255 100 100
0.187274 0.344781 0.245274 255 100 100
-0.280364 0.202613 0.083807 255 100 100
-0.055535 0.090636 0.189674 255 100 100
-0.009496 0.299465 0.345852 255 100 100
-0.187883 0.100753 0.597561 255 100 100
-0.125239 -0.233263 -0.053858 255 100 100
0.154797 -0.070551 -0.317755 255 100 100
-0.293816 0.170435 -0.159395 255 100 100
0.009001 0.159728 0.360552 255 100 100
0.203932 -0.021191 0.504043 255 100 100
-0.090596 -0.262985 0.158692 255 100 100
-0.001218 -0.078092 0.268876 255 100 100
-0.089493 0.089716 0.095424 255 100 100
-0.075785 0.308917 0.007281 255 100 100
-0.190071 0.442216 -0.075842 255 100 100
-0.058764 -0.123869 -0.369656 255 100 100
-0.089108 -0.168112 0.238960 255 100 100
-0.123033 0.237513 0.499767 255 100 100
-0.132165 -0.084610 0.212248 255 100 100
0.066231 0.132315 0.252035 255 100 100
0.021113 0.125586 0.191578 255 100 100
-0.012727 0.201967 0.081486 255 100 100
-0.237392 0.445161 0.063364 255 100 100
0.026900 0.036828 0.434108 255 100 100
0.239766 -0.219264 0.547586 255 100 100
-0.155580 -0.068119 0.301273 255 100 100
-0.243009 0.022075 0.044928 255 100 100
-0.211017 0.027076 -0.109331 255 100 100
-0.041005 -0.073698 -0.123326 255 100 100
0.233066 0.227786 -0.103594 255 100 100
-0.171126 -0.286304 -0.568739 255 100 100
-0.169267 -0.072016 -0.119270 255 100 100
-0.006732 0.080212 0.091195 255 100 100
0.075607 -0.110085 0.510879 255 100 100
0.026362 -0.004021 -0.174076 255 100 100
0.272026 0.306745 -0.003614 255 100 100
-0.069876 -0.289791 -0.101838 255 100 100
0.017837 -0.212892 -0.087204 255 100 100
-0.306544 -0.358953 -0.133361 255 100 100
0.181013 -0.073748 -0.299499 255 100 100
-0.244333 0.159685 -0.190728 255 100 100
0.093689 -0.532195 0.225479 255 100 100
-0.018353 -0.146036 -0.064052 255 100 100
0.133880 0.213374 -0.068492 255 100 100
0.028726 -0.311385 -0.114249 255 100 100
-0.351223 -0.107980 -0.277866 255 100 100
0.397173 -0.403995 -0.091614 255 100 100
0.162866 -0.252362 -0.327596 255 100 100
0.086745 0.323782 -0.127518 255 100 100
0.119702 0.376042 -0.563874 255 100 100
-0.317860 -0.065900 -0.264099 255 100 100
-0.038853 0.341022 0.069903 255 100 100
0.209466 -0.579836 0.154120 255 100 100
-0.258336 -0.048857 -0.336559 255 100 100
-0.105578 0.111614 0.131298 255 100 100
-0.025579 0.035538 -0.031244 255 100 100
0.222739 0.288241 0.185274 255 100 100
0.292903 -0.179606 -0.315408 255 100 100
0.233825 0.114167 -0.160778 255 100 100
0.156975 -0.145048 -0.381855 255 100 100
-0.123074 -0.168181 0.326065 255 100 100
-0.058194 0.297554 0.301518 255 100 100
0.020121 -0.009348 0.018576 255 100 100
0.108027 -0.110463 -0.237332 255 100 100
0.146604 -0.538962 0.019282 255 100 100
0.044384 -0.346476 0.397186 255 100 100
0.092364 0.141677 0.309780 255 100 100
0.114363 0.252944 0.024480 255 100 100
-0.116981 0.057187 -0.191193 255 100 100
0.261344 0.276114 -0.184597 255 100 100
-0.165957 0.384095 0.209320 255 100 100
-0.006454 0.157220 -0.510197 255 100 100
