ply
format ascii 1.0
element vertex 1181
property float x
property float y
property float z
property uchar red
property uchar green
property uchar blue
end_header
0.208292 0.125345 0.180364 100 100 255
-0.262034 -0.013651 -0.131075 100 100 255
-0.075592 0.041527 -0.034990 100 100 255
0.081460 0.112948 -0.302553 100 100 255
0.115019 0.137234 -0.061521 100 100 255
-0.323241 -0.057796 -0.062142 100 100 255
-0.578375 0.308610 -0.030472 100 100 255
-0.027563 -0.260505 -0.065308 100 100 255
0.091929 -0.495067 -0.137722 100 100 255
-0.089963 -0.213933 0.318865 100 100 255
-0.093604 0.095299 -0.292038 100 100 255
-0.013501 -0.015342 -0.033613 100 100 255
-0.018130 0.268587 -0.321847 100 100 255
0.254534 0.122786 0.113686 100 100 255
-0.226715 -0.177518 -0.323783 100 100 255
-0.317168 -0.070075 -0.225892 100 100 255
-0.033031 0.158588 -0.038358 100 100 255
-0.017843 0.088414 0.014888 100 100 255
0.029291 0.004380 -0.034495 100 100 255
0.275657 -0.044801 -0.106717 100 100 255
-0.120237 0.100448 0.402643 100 100 255
-0.539517 -0.243331 -0.134355 100 100 255
0.282954 -0.042869 0.032032 100 100 255
-0.373731 -0.423456 0.225994 100 100 255
0.155317 0.093432 0.368197 100 100 255
0.035590 0.007900 -0.060697 100 100 255
0.371848 -0.179057 -0.447215 100 100 255
0.233626 -0.119793 0.153933 100 100 255
0.463293 0.054290 -0.202439 100 100 255
-0.084968 -0.321163 0.276641 100 100 255
-0.024108 0.008474 0.400144 100 100 255
-0.225995 -0.046917 0.040629 100 100 255
0.099240 0.143202 -0.041954 100 100 255
-0.026832 0.050978 -0.261115 100 100 255
0.102975 0.409825 0.012202 100 100 255
-0.187442 -0.159631 -0.384472 100 100 255
-0.180469 0.112931 0.384557 100 100 255
-0.063252 0.011164 -0.150010 100 100 255
0.052403 -0.176368 -0.089033 100 100 255
0.141259 0.185206 0.054861 100 100 255
0.147889 0.165759 0.016453 100 100 255
0.114805 0.252724 -0.055716 100 100 255
0.004070 0.402758 0.039232 100 100 255
0.011104 0.119973 0.124772 100 100 255
-0.268764 0.255980 0.180570 100 100 255
-0.049453 0.096105 -0.090356 100 100 255
-0.050586 0.473961 0.218187 100 100 255
0.100867 0.157817 0.068104 100 100 255
0.070511 0.019191 -0.102175 100 100 255
0.128343 -0.032897 0.326424 100 100 255
0.035977 -0.173851 -0.239627 100 100 255
-0.286097 0.140422 -0.137969 100 100 255
-0.084609 -0.083731 0.162276 100 100 255
-0.182527 0.103587 -0.038088 100 100 255
0.133273 0.265766 -0.080182 100 100 255
0.229349 0.179898 -0.098796 100 100 255
0.335130 0.029195 0.503475 100 100 255
0.360038 0.412381 -0.138268 100 100 255
-0.099124 -0.104030 0.505828 100 100 255
0.007790 -0.109686 0.215420 100 100 255
0.409405 0.391915 0.083376 100 100 255
0.016360 0.356100 -0.029437 100 100 255
-0.105639 -0.342711 0.242088 100 100 255
0.189361 -0.356498 0.232156 100 100 255
0.209626 0.284470 -0.321052 100 100 255
-0.080333 0.474656 0.108340 100 100 255
-0.380387 -0.395222 -0.374133 100 100 255
-0.092395 -0.138544 -0.250990 100 100 255
-0.280075 0.154442 0.098832 100 100 255
-0.153115 0.320293 0.164901 100 100 255
0.131944 -0.422182 0.027998 100 100 255
0.496929 0.019773 0.336088 100 100 255
0.093414 0.067720 -0.142086 100 100 255
-0.037097 0.106790 -0.170151 100 100 255
-0.279511 -0.049412 -0.042491 100 100 255
0.103274 0.213380 0.319086 100 100 255
0.168349 -0.100960 -0.063910 100 100 255
0.046092 0.317390 0.003323 100 100 255
-0.108347 -0.296430 0.337792 100 100 255
-0.571334 -0.244463 0.050988 100 100 255
-0.119640 0.128809 0.045831 100 100 255
0.034009 0.200103 -0.064085 100 100 255
-0.138237 -0.126499 0.281800 100 100 255
-0.120623 -0.382758 -0.123885 100 100 255
0.157074 -0.222521 0.122159 100 100 255
0.228322 0.006698 -0.126966 100 100 255
0.112949 -0.067469 -0.200828 100 100 255
-0.009525 0.056067 0.050211 100 100 255
0.093147 -0.234227 0.181310 100 100 255
-0.073721 -0.148718 0.175915 100 100 255
-0.008543 -0.358333 -0.164595 100 100 255
0.124765 -0.070599 -0.412207 100 100 255
0.041281 0.217609 -0.236213 100 100 255
0.244020 0.275965 -0.006394 100 100 255
-0.204837 -0.195039 0.087528 100 100 255
0.024481 0.445350 0.181233 100 100 255
-0.014801 0.158938 -0.238842 100 100 255
0.052113 0.005649 -0.220434 100 100 255
-0.100764 -0.003095 -0.015785 100 100 255
0.106891 0.132986 -0.096709 100 100 255
-0.077059 -0.064245 -0.135205 100 100 255
-0.123283 0.011062 0.027933 100 100 255
-0.005547 0.135791 -0.249240 100 100 255
0.022300 -0.004255 -0.165582 100 100 255
0.146070 -0.115754 0.370534 100 100 255
0.328008 0.145119 0.114629 100 100 255
0.074440 0.029810 0.203722 100 100 255
0.040919 -0.023949 -0.202835 100 100 255
-0.255953 -0.102539 -0.013508 100 100 255
-0.056561 -0.322538 0.064567 100 100 255
-0.196377 0.121590 0.025844 100 100 255
0.118585 0.188486 -0.033464 100 100 255
0.108498 0.141918 0.052544 100 100 255
-0.034421 -0.381341 -0.202948 100 100 255
-0.174021 -0.131918 -0.121759 100 100 255
-0.124204 0.073909 -0.247900 100 100 255
-0.342235 -0.288352 0.318367 100 100 255
0.238196 0.350647 0.360999 100 100 255
0.102040 -0.126306 0.001886 100 100 255
-0.246149 -0.347683 0.003613 100 100 255
0.344902 0.127930 -0.012564 100 100 255
-0.015953 0.251923 0.461854 100 100 255
-0.073812 -0.127569 -0.002158 100 100 255
-0.053199 -0.202681 0.041322 100 100 255
-0.072883 0.032805 0.124645 100 100 255
0.102926 0.426985 -0.180501 100 100 255
-0.113548 -0.204045 -0.019871 100 100 255
-0.071657 -0.148180 -0.157903 100 100 255
0.027007 0.100485 -0.255996 100 100 255
0.213310 0.291018 -0.057460 100 100 255
-0.272056 0.089032 -0.315127 100 100 255
0.027696 -0.406140 -0.273893 100 100 255
0.001039 -0.209017 0.021016 100 100 255
0.164372 -0.072047 -0.222352 100 100 255
0.110624 -0.073359 0.391615 100 100 255
0.032790 0.314029 0.071933 100 100 255
-0.170544 -0.158217 0.317234 100 100 255
-0.459046 -0.221161 -0.083169 100 100 255
0.168011 -0.241706 -0.176086 100 100 255
0.070142 0.209568 0.018919 100 100 255
-0.003233 -0.023105 0.022687 100 100 255
-0.175696 -0.316544 -0.142485 100 100 255
-0.016078 0.197996 0.153469 100 100 255
-0.138037 0.035926 -0.271072 100 100 255
-0.181422 -0.142865 0.104666 100 100 255
0.290883 -0.276255 -0.260768 100 100 255
0.019908 0.116435 -0.395385 100 100 255
-0.167462 0.151417 0.188152 100 100 255
-0.507862 -0.235246 0.016833 100 100 255
-0.141234 0.042657 -0.405734 100 100 255
0.282930 0.033189 0.506332 100 100 255
-0.455513 0.183842 0.134370 100 100 255
0.364227 -0.088901 0.009301 100 100 255
-0.162358 -0.333373 -0.018456 100 100 255
-0.309924 -0.106194 -0.133096 100 100 255
0.064819 0.072693 0.204373 100 100 255
-0.093074 -0.084121 0.234265 100 100 255
-0.315925 0.268006 0.044233 100 100 255
-0.072127 -0.067213 -0.126146 100 100 255
-0.119537 0.055686 -0.321743 100 100 255
-0.453908 0.208196 -0.296971 100 100 255
0.045210 -0.066399 -0.230539 100 100 255
-0.205869 0.223304 -0.235706 100 100 255
0.166132 -0.336037 0.347742 100 100 255
-0.010155 0.227139 0.012292 100 100 255
0.239579 0.202664 0.285070 100 100 255
0.148336 -0.154435 -0.083582 100 100 255
0.021621 -0.025981 -0.138074 100 100 255
-0.352756 0.082976 0.045134 100 100 255
-0.202229 0.312425 -0.250790 100 100 255
-0.066614 0.464426 0.208152 100 100 255
-0.086280 -0.472469 0.224519 100 100 255
-0.030578 0.137562 -0.060799 100 100 255
0.084273 -0.400236 0.291115 100 100 255
-0.233617 -0.002135 -0.118339 100 100 255
0.130880 0.116080 -0.251150 100 100 255
0.137376 0.005769 0.131001 100 100 255
0.029545 -0.200613 0.008277 100 100 255
0.208903 0.035718 -0.128331 100 100 255
-0.156797 0.137178 0.312938 100 100 255
0.264664 0.270995 0.289257 100 100 255
-0.196387 -0.233943 0.124546 100 100 255
0.082432 0.116054 0.409283 100 100 255
0.112907 -0.007707 -0.198878 100 100 255
-0.039864 -0.157768 -0.000947 100 100 255
-0.065876 -0.027124 -0.064341 100 100 255
-0.100691 -0.161055 0.067459 100 100 255
0.031840 -0.198174 0.117646 100 100 255
0.046914 -0.313371 0.352068 100 100 255
-0.241580 0.253906 -0.315863 100 100 255
-0.204458 0.348111 0.294771 100 100 255
0.091498 0.059708 0.262348 100 100 255
0.400302 -0.349326 -0.144643 100 100 255
0.459532 0.109959 0.126563 100 100 255
0.136079 -0.457592 0.123020 100 100 255
0.192952 0.022951 0.378500 100 100 255
0.016875 0.119878 -0.139744 100 100 255
0.065479 0.209476 0.034550 100 100 255
0.303407 -0.389084 0.187003 100 100 255
0.063427 -0.191632 -0.218199 100 100 255
0.080355 0.053076 0.054755 100 100 255
-0.300110 0.207446 -0.067134 100 100 255
0.121814 0.346757 -0.060096 100 100 255
0.212195 0.175725 -0.043321 100 100 255
0.211354 -0.217734 0.163015 100 100 255
-0.488741 0.080920 0.074354 100 100 255
0.090516 0.146418 0.248809 100 100 255
0.170837 -0.004721 0.150589 100 100 255
-0.174619 0.087619 -0.094990 100 100 255
0.075897 0.189611 0.164239 100 100 255
0.169690 -0.000218 -0.024705 100 100 255
0.181391 0.055252 0.179914 100 100 255
-0.128754 -0.066900 0.071104 100 100 255
-0.172511 0.241503 0.441275 100 100 255
-0.118294 0.207020 0.319219 100 100 255
-0.327550 -0.038401 -0.156030 100 100 255
-0.063989 -0.038610 -0.217991 100 100 255
-0.060183 -0.143891 0.165569 100 100 255
0.239269 -0.118329 -0.021202 100 100 255
0.103791 -0.147372 0.496137 100 100 255
-0.288084 0.096013 -0.015732 100 100 255
-0.313956 -0.294093 -0.067711 100 100 255
0.107953 0.305223 0.123867 100 100 255
-0.272559 -0.149366 -0.030072 100 100 255
0.174695 -0.442698 0.028473 100 100 255
0.231492 -0.018329 0.080593 100 100 255
-0.268865 -0.076125 -0.060577 100 100 255
-0.331995 0.320480 -0.077613 100 100 255
0.001295 -0.064443 0.198759 100 100 255
0.285856 0.145491 -0.153451 100 100 255
0.441054 0.099058 0.455200 100 100 255
-0.383023 -0.528194 -0.003981 100 100 255
0.000971 0.050566 -0.095424 100 100 255
-0.138041 -0.279510 -0.082020 100 100 255
0.070203 -0.020243 0.167301 100 100 255
-0.187510 0.201058 -0.225966 100 100 255
-0.133578 -0.132083 0.213120 100 100 255
0.217442 -0.141118 0.309735 100 100 255
0.241706 0.093315 -0.242480 100 100 255
0.187721 -0.210999 -0.193222 100 100 255
-0.285998 0.219157 0.040039 100 100 255
0.020237 0.079906 -0.141769 100 100 255
0.263054 -0.026156 -0.360986 100 100 255
0.114190 0.111200 0.195180 100 100 255
0.080998 0.140339 -0.258555 100 100 255
0.155461 0.300820 -0.117292 100 100 255
-0.016530 0.330657 -0.163030 100 100 255
-0.312545 -0.218556 0.059147 100 100 255
0.179942 0.070615 -0.026794 100 100 255
0.116295 0.237637 -0.024256 100 100 255
-0.114697 -0.009380 -0.196437 100 100 255
0.071626 -0.003777 0.163543 100 100 255
0.371184 -0.262355 0.143820 100 100 255
0.098395 0.374141 0.111607 100 100 255
0.017919 -0.003794 0.209437 100 100 255
0.026226 0.012111 0.214294 100 100 255
0.152572 0.013896 0.123427 100 100 255
-0.033071 0.013338 -0.237112 100 100 255
0.067446 0.118601 -0.133002 100 100 255
0.141138 0.172350 -0.091561 100 100 255
0.159389 0.324875 -0.010333 100 100 255
0.076435 -0.114131 0.196395 100 100 255
0.013055 0.268837 -0.222099 100 100 255
-0.152563 -0.137364 0.302752 100 100 255
0.070428 -0.120137 0.134721 100 100 255
0.077997 -0.144147 0.159108 100 100 255
0.062578 -0.052044 -0.005210 100 100 255
0.250776 -0.105854 0.043559 100 100 255
0.263255 0.116591 0.231036 100 100 255
0.394274 -0.113110 0.217611 100 100 255
-0.205991 -0.027096 -0.092921 100 100 255
-0.205972 -0.217384 -0.263433 100 100 255
-0.076212 -0.166716 0.084223 100 100 255
-0.044910 -0.195542 0.004645 100 100 255
0.031670 0.349170 0.419845 100 100 255
-0.485426 -0.076011 -0.075010 100 100 255
-0.164676 0.126991 -0.130109 100 100 255
0.170213 0.239144 -0.127724 100 100 255
-0.070092 0.140604 -0.030981 100 100 255
0.308368 -0.057311 -0.055914 100 100 255
-0.121224 -0.063671 -0.244378 100 100 255
0.237250 0.275321 -0.327248 100 100 255
0.062981 0.129682 -0.143315 100 100 255
0.030154 -0.071216 0.233373 100 100 255
0.365711 0.326311 -0.235484 100 100 255
0.178047 0.140641 0.084741 100 100 255
0.198626 0.060495 0.123137 100 100 255
0.085949 0.066529 -0.060809 100 100 255
-0.187964 -0.316554 -0.180073 100 100 255
0.033891 -0.065852 -0.078169 100 100 255
-0.180511 0.068811 -0.197333 100 100 255
0.055151 0.268840 -0.172480 100 100 255
-0.121634 -0.040794 0.104856 100 100 255
0.031984 -0.065772 -0.038275 100 100 255
-0.173694 -0.054079 -0.305340 100 100 255
0.107332 0.018941 -0.122938 100 100 255
0.114766 0.305724 0.178133 100 100 255
0.194012 -0.010129 -0.243451 100 100 255
-0.080683 0.181650 -0.053369 100 100 255
-0.045751 -0.236085 0.229739 100 100 255
0.118315 -0.022110 0.420760 100 100 255
0.183264 -0.064501 0.020030 100 100 255
0.159182 -0.139960 0.737554 100 100 255
0.169138 -0.004234 -0.196816 100 100 255
0.230224 0.209216 0.077810 100 100 255
-0.118933 -0.031795 -0.369537 100 100 255
0.330173 0.528266 0.039795 100 100 255
0.064705 0.182380 -0.131234 100 100 255
0.031581 -0.144733 -0.053052 100 100 255
0.017157 -0.397745 -0.097654 100 100 255
-0.155786 -0.065366 0.342074 100 100 255
0.150548 -0.072561 -0.180809 100 100 255
0.054924 0.088869 0.349239 100 100 255
0.091536 0.278526 -0.138726 100 100 255
0.167727 0.333464 0.199600 100 100 255
-0.269145 0.105704 -0.094460 100 100 255
-0.268346 0.312059 0.202464 100 100 255
0.285137 0.207402 -0.145255 100 100 255
-0.014964 0.000119 0.023543 100 100 255
-0.076869 -0.325646 -0.153841 100 100 255
-0.150840 -0.130642 -0.098257 100 100 255
0.427723 0.127841 0.002203 100 100 255
-0.189832 0.208801 0.088103 100 100 255
-0.186597 0.025409 0.157041 100 100 255
-0.078538 0.349282 -0.115531 100 100 255
-0.211708 0.305051 0.054897 100 100 255
-0.117348 0.201405 -0.013114 100 100 255
0.258645 -0.164703 -0.018241 100 100 255
0.186108 -0.042278 -0.085727 100 100 255
0.054285 -0.109582 0.071422 100 100 255
0.297238 -0.057218 0.219460 100 100 255
0.354945 0.524603 0.046634 100 100 255
-0.176175 0.145618 0.050402 100 100 255
-0.459316 0.114297 -0.055055 100 100 255
0.026279 0.093296 0.083766 100 100 255
0.029522 0.127724 0.204066 100 100 255
0.360381 -0.132604 -0.022963 100 100 255
0.185159 0.212064 -0.137706 100 100 255
-0.192328 -0.216125 0.233824 100 100 255
0.119324 0.221488 -0.081947 100 100 255
0.072442 -0.279723 -0.032236 100 100 255
-0.479888 0.039431 0.137709 100 100 255
0.079429 -0.029261 0.247418 100 100 255
-0.198683 0.260570 0.033376 100 100 255
0.094564 0.064273 0.300151 100 100 255
0.072549 -0.179683 -0.045058 100 100 255
0.025885 -0.035947 -0.124957 100 100 255
-0.080097 -0.065539 -0.101601 100 100 255
0.091432 0.214068 0.137791 100 100 255
0.486478 -0.231388 -0.030545 100 100 255
-0.073348 -0.104929 -0.280403 100 100 255
0.020279 -0.189684 0.226278 100 100 255
0.023241 -0.053966 0.319966 100 100 255
0.452281 -0.151747 -0.092845 100 100 255
0.032925 -0.232439 0.182779 100 100 255
0.224908 -0.306760 -0.160672 100 100 255
-0.211786 0.049445 -0.069173 100 100 255
-0.176424 0.040054 0.024038 100 100 255
-0.372520 0.025068 0.117362 100 100 255
0.079679 0.136669 -0.175535 100 100 255
-0.448908 -0.078131 0.092371 100 100 255
-0.209631 0.000169 -0.390263 100 100 255
0.129987 -0.026613 0.136322 100 100 255
0.354902 -0.180535 -0.095613 100 100 255
0.095507 -0.152743 0.150470 100 100 255
0.042574 -0.085576 0.098135 100 100 255
0.140910 -0.073155 0.037724 100 100 255
0.548336 -0.341801 0.157816 100 100 255
0.182693 -0.081068 0.003566 100 100 255
0.181619 0.144943 0.124368 100 100 255
0.051860 0.017068 0.048959 100 100 255
-0.252043 0.247524 -0.139782 100 100 255
0.047548 0.281674 0.064176 100 100 255
0.152505 0.016928 -0.418234 100 100 255
0.207308 -0.249954 -0.115430 100 100 255
-0.088059 -0.168924 -0.049798 100 100 255
-0.054993 -0.015573 0.133989 100 100 255
0.316479 0.001156 0.464987 100 100 255
0.046370 0.099862 0.068774 100 100 255
0.121383 -0.304443 -0.326724 100 100 255
-0.347205 -0.212353 -0.059643 100 100 255
0.006939 0.149570 0.131998 100 100 255
-0.100118 0.103330 0.117103 100 100 255
0.076240 -0.095014 -0.350420 100 100 255
-0.081240 0.253074 0.035441 100 100 255
0.173503 -0.008469 0.133241 100 100 255
0.013459 0.132902 0.107827 100 100 255
0.055218 -0.194895 0.147495 100 100 255
0.373832 0.110955 -0.008774 100 100 255
0.145146 -0.002840 0.384391 100 100 255
0.206263 0.181778 -0.176246 100 100 255
-0.359480 0.095865 -0.081371 100 100 255
0.088784 0.253328 -0.210991 100 100 255
0.253182 0.189929 0.119882 100 100 255
-0.164944 -0.176129 -0.006014 100 100 255
0.053938 -0.069317 0.020477 100 100 255
0.039368 -0.281635 0.077404 100 100 255
0.193412 -0.164411 -0.194183 100 100 255
-0.084353 -0.287178 -0.283641 100 100 255
-0.361008 -0.111088 0.012612 100 100 255
-0.016501 -0.188290 0.061158 100 100 255
-0.319223 0.083088 0.213746 100 100 255
-0.089997 0.058832 -0.145898 100 100 255
0.371237 -0.203727 0.061939 100 100 255
-0.163461 0.384192 -0.218652 100 100 255
0.254547 0.042857 0.123590 100 100 255
-0.362516 0.135451 0.263104 100 100 255
-0.111130 0.129863 0.057174 100 100 255
-0.170530 -0.322844 -0.147744 100 100 255
-0.233801 0.078885 -0.236339 100 100 255
0.228587 -0.282596 -0.162895 100 100 255
-0.285835 0.056425 -0.157458 100 100 255
0.163362 -0.138191 -0.009090 100 100 255
-0.101167 -0.040583 0.178564 100 100 255
0.370556 -0.009052 -0.351183 100 100 255
-0.055990 0.086841 -0.153215 100 100 255
0.307320 0.128155 -0.297525 100 100 255
0.307589 0.195181 0.144174 100 100 255
0.336114 0.147768 0.060776 100 100 255
-0.051433 0.079678 0.028511 100 100 255
0.021624 -0.134327 -0.400865 100 100 255
-0.043967 0.071771 -0.002236 100 100 255
0.136487 -0.182725 0.018917 100 100 255
-0.160943 0.245845 -0.250975 100 100 255
0.336470 -0.045253 -0.032427 100 100 255
-0.028206 -0.339988 -0.187668 100 100 255
0.070334 -0.154506 -0.191322 100 100 255
-0.213801 -0.057312 -0.023261 100 100 255
0.074612 -0.006969 0.083296 100 100 255
0.037511 0.070463 0.112497 100 100 255
0.212179 0.504950 0.069543 100 100 255
-0.107572 -0.103796 0.189490 100 100 255
-0.202076 -0.199248 -0.472387 100 100 255
0.143320 0.103982 -0.162028 100 100 255
-0.167596 -0.187309 -0.171450 100 100 255
0.061884 0.314090 0.064041 100 100 255
0.207831 0.045238 0.018092 100 100 255
0.173269 -0.344523 -0.380154 100 100 255
-0.112040 0.003643 0.223913 100 100 255
-0.285080 -0.129182 -0.189615 100 100 255
0.079282 -0.180701 0.124463 100 100 255
0.115361 0.189603 0.145928 100 100 255
-0.064452 0.096587 -0.242849 100 100 255
0.252216 0.034913 -0.147118 100 100 255
-0.296764 0.107373 0.200229 100 100 255
0.122673 -0.053786 -0.123882 100 100 255
-0.124074 -0.323386 0.002050 100 100 255
0.170161 -0.166863 -0.049869 100 100 255
0.206752 -0.067870 0.012579 100 100 255
-0.080294 0.468173 -0.101874 100 100 255
0.377779 0.130006 -0.235924 100 100 255
-0.104263 -0.410814 0.205048 100 100 255
-0.130792 0.004215 0.112237 100 100 255
0.372249 -0.359342 0.206111 100 100 255
0.447676 0.167463 -0.023498 100 100 255
-0.182846 0.036620 0.134653 100 100 255
-0.349765 0.032119 0.294743 100 100 255
0.464766 0.252184 0.337202 100 100 255
-0.189912 -0.426847 -0.181202 100 100 255
0.100832 0.134567 0.017934 100 100 255
0.254043 -0.114515 0.110800 100 100 255
-0.146212 -0.142971 0.031763 100 100 255
0.080065 -0.048352 -0.027458 100 100 255
-0.021414 0.079425 0.365669 100 100 255
-0.026749 0.482272 0.320283 100 100 255
-0.016947 0.012009 -0.044731 100 100 255
0.055834 0.065218 0.291812 100 100 255
0.026590 -0.084831 -0.235242 100 100 255
-0.508801 0.244065 0.155477 100 100 255
0.169280 0.015744 0.064494 100 100 255
0.235338 0.060334 -0.342746 100 100 255
-0.293594 -0.110259 0.178620 100 100 255
-0.223040 -0.032617 -0.046526 100 100 255
0.241445 -0.175798 0.064782 100 100 255
0.038942 -0.472016 0.113927 100 100 255
0.115861 0.252316 -0.236099 100 100 255
0.033519 0.196348 -0.115065 100 100 255
-0.207299 0.208075 0.008493 100 100 255
0.094985 -0.254836 -0.044294 100 100 255
0.116820 0.191380 0.154636 100 100 255
0.175999 -0.580476 0.182869 100 100 255
0.062727 -0.390146 -0.112797 100 100 255
-0.252939 -0.067009 0.327567 100 100 255
0.161181 -0.107134 0.058066 100 100 255
0.020268 -0.102171 -0.279435 100 100 255
-0.054793 -0.476983 -0.087852 100 100 255
0.062738 -0.142852 0.405435 100 100 255
-0.133759 -0.063643 -0.115648 100 100 255
-0.068248 0.012527 -0.229887 100 100 255
-0.188169 0.298742 -0.189895 100 100 255
-0.287782 0.157953 -0.350697 100 100 255
-0.091177 0.139713 -0.363906 100 100 255
-0.129875 -0.065734 -0.179259 100 100 255
0.129701 0.241050 0.032603 100 100 255
-0.243334 0.180031 -0.152448 100 100 255
-0.326910 0.011453 0.143649 100 100 255
0.277213 -0.416714 0.097341 100 100 255
0.046888 -0.083771 -0.363772 100 100 255
-0.147901 -0.113387 0.072263 100 100 255
-0.061266 0.228321 -0.112187 100 100 255
0.111995 0.300470 -0.046319 100 100 255
-0.288626 -0.265775 -0.069819 100 100 255
0.215996 -0.217485 -0.111877 100 100 255
0.277893 0.300129 0.076819 100 100 255
-0.039093 0.070952 0.237429 100 100 255
-0.091023 0.208572 -0.128823 100 100 255
-0.067382 -0.001249 0.003443 100 100 255
-0.256182 -0.118297 0.146394 100 100 255
0.194383 -0.018818 -0.015818 100 100 255
-0.166660 0.169705 -0.451679 100 100 255
0.003365 -0.054941 0.180285 100 100 255
0.154275 0.045715 0.173450 100 100 255
-0.221678 0.008718 -0.218139 100 100 255
0.162612 0.079889 -0.004768 100 100 255
-0.135976 0.312596 -0.062071 100 100 255
0.052676 0.032666 0.284436 100 100 255
0.056326 0.253318 0.250994 100 100 255
0.218682 -0.113901 -0.222714 100 100 255
0.446438 0.184695 -0.007208 100 100 255
0.029536 0.161541 -0.215168 100 100 255
0.291787 0.192986 0.310724 100 100 255
-0.502589 -0.083570 0.213882 100 100 255
0.158654 0.019727 -0.384934 100 100 255
-0.151648 -0.168587 -0.013794 100 100 255
-0.117522 0.074692 0.066887 100 100 255
0.117116 -0.037544 0.088272 100 100 255
0.250488 0.357034 -0.429787 100 100 255
-0.072237 0.071801 -0.031228 100 100 255
0.014291 0.173998 -0.242871 100 100 255
-0.136338 0.203299 0.238076 100 100 255
-0.049120 0.229254 -0.238099 100 100 255
0.085105 0.169939 0.020423 100 100 255
-0.040255 -0.206040 -0.243646 100 100 255
-0.152815 -0.271513 0.115417 100 100 255
-0.258786 0.152093 -0.190840 100 100 255
0.062997 0.138922 0.226811 100 100 255
0.191776 0.094395 -0.003204 100 100 255
-0.227775 -0.165589 -0.100576 100 100 255
0.089318 -0.434726 0.210036 100 100 255
0.118033 -0.128805 -0.239673 100 100 255
0.116948 0.144469 0.502506 100 100 255
0.182289 -0.073713 0.250128 100 100 255
-0.042774 -0.127128 -0.023487 100 100 255
-0.104564 -0.249124 -0.096222 100 100 255
-0.011190 -0.044311 -0.108157 100 100 255
-0.129032 -0.166332 -0.108325 100 100 255
0.106692 0.088705 0.095863 100 100 255
-0.424384 -0.363579 0.171418 100 100 255
-0.051569 -0.004295 -0.146318 100 100 255
0.087852 -0.100625 0.089512 100 100 255
0.195204 -0.020976 0.102287 100 100 255
0.090824 0.514322 -0.000287 100 100 255
-0.234833 0.408989 -0.078789 100 100 255
0.177906 -0.320185 0.140944 100 100 255
0.025289 -0.167851 -0.180905 100 100 255
-0.461716 0.093314 0.165951 100 100 255
0.249905 0.368503 -0.017678 100 100 255
0.271726 0.379219 0.219643 100 100 255
0.155058 0.375072 0.149002 100 100 255
-0.239050 0.177948 -0.178884 100 100 255
0.088851 -0.037577 -0.063290 100 100 255
-0.054501 -0.422927 0.152297 100 100 255
-0.250093 0.332852 -0.200436 100 100 255
0.329009 -0.191390 -0.071350 100 100 255
-0.110101 0.003702 -0.035059 100 100 255
0.100743 0.035245 -0.211266 100 100 255
-0.018346 -0.049162 0.152249 100 100 255
0.042756 0.035986 -0.295373 100 100 255
0.275218 -0.334857 0.045888 100 100 255
0.276810 -0.146663 -0.142599 100 100 255
0.149060 0.047280 -0.519260 100 100 255
-0.037198 -0.495126 0.253633 100 100 255
0.066243 0.113433 -0.091873 100 100 255
0.034827 0.105383 -0.283797 100 100 255
0.223142 -0.001575 0.192346 100 100 255
-0.218163 0.491716 -0.026109 100 100 255
0.134954 0.119018 0.092298 100 100 255
-0.289602 -0.289917 -0.101377 100 100 255
-0.055192 -0.448518 -0.075808 100 100 255
-0.112647 -0.252714 0.013254 100 100 255
0.269885 -0.071517 -0.275337 100 100 255
0.176340 -0.313419 -0.245115 100 100 255
-0.027982 0.048989 0.147053 100 100 255
-0.040393 -0.098589 -0.048239 100 100 255
0.071713 0.046006 -0.271462 100 100 255
-0.119781 0.001597 -0.027076 100 100 255
0.096430 0.183607 -0.012759 100 100 255
-0.072222 0.245365 -0.052949 100 100 255
-0.133044 0.358169 0.263882 100 100 255
0.098959 -0.279457 -0.106139 100 100 255
0.155331 0.207056 -0.012800 100 100 255
0.413451 -0.124105 -0.332598 100 100 255
0.351756 -0.052484 -0.255183 100 100 255
-0.006020 0.046923 -0.032163 100 100 255
-0.036877 0.025877 0.273612 100 100 255
0.167814 0.288504 -0.124368 100 100 255
-0.097056 0.212453 -0.381674 100 100 255
-0.128712 -0.118414 0.318457 100 100 255
-0.229338 0.104165 0.051617 100 100 255
0.182839 -0.026808 0.206191 100 100 255
0.158093 -0.168604 -0.028762 100 100 255
0.044207 -0.113872 -0.133873 100 100 255
0.324168 0.215932 -0.058977 100 100 255
-0.007127 -0.390636 0.070744 100 100 255
0.252248 -0.280357 0.032460 100 100 255
0.125786 -0.166643 0.146765 100 100 255
-0.038074 -0.137455 -0.081235 100 100 255
-0.327295 0.331430 -0.049839 100 100 255
-0.017356 -0.125264 0.101247 100 100 255
-0.044405 0.087863 0.128974 100 100 255
0.059738 0.184525 -0.192691 100 100 255
-0.400902 0.162035 -0.219141 100 100 255
0.038769 0.083585 0.102043 100 100 255
-0.091910 -0.124640 0.040322 100 100 255
0.112732 0.063823 -0.095639 100 100 255
-0.132707 -0.082398 -0.117978 100 100 255
-0.331856 -0.165009 0.372461 100 100 255
0.166132 0.078948 0.124610 100 100 255
0.012756 0.193241 -0.025503 100 100 255
0.314640 -0.079724 0.270704 100 100 255
0.179498 -0.283030 -0.205692 100 100 255
0.206975 0.218730 -0.029867 100 100 255
-0.002491 -0.015759 -0.013843 100 100 255
0.148772 -0.041790 0.040243 100 100 255
0.020856 -0.189116 0.281869 100 100 255
0.617073 0.088228 0.050119 100 100 255
0.166863 -0.116029 0.064579 100 100 255
0.025877 0.036182 -0.132633 100 100 255
-0.090156 -0.111153 0.149326 100 100 255
0.403774 -0.126978 -0.061719 100 100 255
0.020101 -0.017590 -0.253049 100 100 255
-0.027234 0.066519 -0.240210 100 100 255
-0.184118 -0.072868 -0.219130 100 100 255
0.172162 -0.229425 -0.158509 100 100 255
0.289326 -0.016798 0.163847 100 100 255
0.180049 0.152462 0.064216 100 100 255
-0.013940 0.020348 0.200486 100 100 255
-0.054040 -0.367531 0.074435 100 100 255
0.440380 0.049890 -0.473560 100 100 255
-0.074600 0.080906 0.013730 100 100 255
0.128310 0.297143 -0.085780 100 100 255
-0.149365 -0.173179 0.372512 100 100 255
0.143799 -0.263404 0.295124 100 100 255
0.251125 -0.218721 0.067312 100 100 255
-0.083811 -0.034237 -0.244710 100 100 255
-0.042165 -0.108595 0.182702 100 100 255
0.150151 -0.157911 -0.187671 100 100 255
0.135129 -0.117472 -0.131942 100 100 255
0.371622 -0.171842 0.252222 100 100 255
0.305067 -0.191586 0.046227 100 100 255
-0.066706 -0.031483 0.214623 100 100 255
0.006841 -0.251439 -0.087869 100 100 255
0.174333 -0.110219 0.188190 100 100 255
0.521186 0.037598 -0.277954 100 100 255
-0.134411 -0.126239 -0.176394 100 100 255
0.046095 -0.290691 -0.073929 100 100 255
0.097992 0.099774 -0.118239 100 100 255
0.247962 0.022451 -0.401892 100 100 255
-0.211412 -0.031294 0.216233 100 100 255
0.170516 -0.192093 0.051526 100 100 255
-0.072024 0.154565 -0.186700 100 100 255
0.074083 -0.342839 0.046146 100 100 255
0.047446 -0.077501 -0.208444 100 100 255
0.031547 0.366237 -0.327354 100 100 255
0.478156 0.068282 -0.018681 100 100 255
-0.167644 -0.169693 -0.192778 100 100 255
0.184971 0.226654 -0.280435 100 100 255
0.150078 0.014519 -0.075624 100 100 255
0.130472 -0.146551 -0.248214 100 100 255
-0.089355 -0.128932 0.420539 100 100 255
-0.211562 -0.032592 -0.209231 100 100 255
0.077937 -0.000643 -0.058056 100 100 255
-0.068114 0.260814 0.046403 100 100 255
0.070862 0.183110 -0.226635 100 100 255
0.231077 -0.126948 -0.156277 100 100 255
0.147858 -0.447242 -0.029873 100 100 255
-0.246452 0.158497 -0.363706 100 100 255
-0.336614 -0.307253 -0.000263 100 100 255
0.127428 -0.285066 0.016869 100 100 255
-0.128272 -0.149263 0.241711 100 100 255
0.080525 -0.191171 0.364225 100 100 255
0.121025 -0.040848 -0.142388 100 100 255
-0.001210 -0.181601 0.224621 100 100 255
-0.092933 -0.262309 0.181161 100 100 255
-0.131646 -0.107149 -0.310742 100 100 255
-0.362209 -0.071934 -0.236640 100 100 255
-0.268739 -0.114385 -0.077678 100 100 255
-0.048340 0.113849 -0.137636 100 100 255
-0.120049 0.066612 0.192858 100 100 255
-0.066268 0.039924 0.015786 100 100 255
0.203036 -0.155077 0.401216 100 100 255
0.015989 -0.202426 0.178335 100 100 255
-0.140260 -0.130581 -0.086288 100 100 255
-0.191283 -0.030229 0.241115 100 100 255
0.207193 0.089194 -0.252233 100 100 255
0.067480 -0.045787 0.117209 100 100 255
0.002243 0.021404 -0.134217 100 100 255
0.070143 0.005342 -0.011411 100 100 255
-0.163232 0.161371 -0.213899 100 100 255
-0.200827 -0.436020 -0.077071 100 100 255
-0.071802 0.123273 0.040450 100 100 255
0.010483 -0.047203 0.116362 100 100 255
0.022562 0.140579 0.196377 100 100 255
-0.036980 -0.245751 0.053959 100 100 255
-0.127493 -0.143333 -0.138563 100 100 255
-0.486440 -0.369185 -0.173788 100 100 255
0.022095 0.012982 0.054510 100 100 255
-0.342128 0.165400 0.278622 100 100 255
-0.101092 -0.133998 -0.476599 100 100 255
0.067321 -0.012034 0.020879 100 100 255
-0.073747 0.152332 0.310437 100 100 255
-0.031484 0.225275 -0.111352 100 100 255
0.121126 -0.022220 0.095069 100 100 255
-0.316831 0.303837 0.035294 100 100 255
0.068307 0.001538 0.167262 100 100 255
0.040626 0.288428 -0.154198 100 100 255
-0.090241 -0.008250 0.089467 100 100 255
-0.141593 0.221203 -0.127847 100 100 255
0.144279 0.630143 0.209508 100 100 255
0.064320 -0.320764 -0.058597 100 100 255
0.085777 0.180354 -0.043045 100 100 255
-0.138462 0.134528 0.177358 100 100 255
-0.295329 -0.046345 0.095080 100 100 255
-0.268339 -0.091984 0.159087 100 100 255
-0.184794 0.040743 -0.133863 100 100 255
0.078368 -0.300686 -0.217314 100 100 255
-0.013041 -0.310239 0.201490 100 100 255
-0.236468 -0.220674 0.065967 100 100 255
0.057465 -0.025422 0.117358 100 100 255
-0.161894 -0.153726 0.214840 100 100 255
0.109817 0.190513 -0.242952 100 100 255
-0.048242 -0.121078 0.068527 100 100 255
-0.102553 0.265261 0.295488 100 100 255
0.045527 0.107040 0.022471 100 100 255
0.032039 -0.137808 -0.028144 100 100 255
0.371703 -0.229119 0.027402 100 100 255
0.042515 -0.131090 -0.009943 100 100 255
-0.203193 -0.385730 -0.215066 100 100 255
-0.156589 0.001267 0.089182 100 100 255
-0.051341 0.032271 0.153692 100 100 255
0.110139 -0.255766 0.316507 100 100 255
0.018580 0.119486 0.239513 100 100 255
0.400834 -0.131645 -0.040790 100 100 255
0.193191 -0.053287 -0.011973 100 100 255
0.002962 -0.206761 -0.188078 100 100 255
-0.093499 -0.127599 0.385989 100 100 255
-0.064244 0.003641 -0.047343 100 100 255
0.353394 -0.273795 0.029568 100 100 255
-0.201729 -0.286399 -0.156917 100 100 255
-0.141177 0.053067 0.198847 100 100 255
0.155763 0.098713 -0.029452 100 100 255
-0.277098 -0.011373 0.087373 100 100 255
0.262647 -0.083552 0.334782 100 100 255
0.111899 0.165044 -0.076737 100 100 255
-0.178217 -0.334193 0.235947 100 100 255
0.047081 -0.156379 0.330030 100 100 255
-0.392109 0.031445 -0.265691 100 100 255
0.249805 -0.105464 -0.011247 100 100 255
0.003687 0.082026 -0.037289 100 100 255
0.160872 -0.051023 -0.183768 100 100 255
-0.012241 -0.483141 0.237518 100 100 255
0.290381 -0.157958 -0.053046 100 100 255
-0.235951 -0.024314 -0.319242 100 100 255
0.258463 -0.368371 -0.029098 100 100 255
-0.543819 -0.050164 0.133210 100 100 255
-0.232481 -0.190868 -0.170710 100 100 255
-0.138267 0.176139 0.188991 100 100 255
-0.103592 -0.373912 -0.250627 100 100 255
0.259770 0.030340 -0.161386 100 100 255
0.296453 0.058480 0.047922 100 100 255
-0.059949 0.053080 0.193765 100 100 255
-0.226545 -0.340067 0.132914 100 100 255
0.012813 0.108619 0.097298 100 100 255
-0.173297 -0.005805 -0.081207 100 100 255
-0.036377 0.096794 0.189958 100 100 255
-0.089600 -0.478129 -0.014862 100 100 255
-0.043523 0.321137 0.178656 100 100 255
0.006101 0.126456 0.380247 100 100 255
0.062351 0.290182 0.056452 100 100 255
-0.221052 -0.093506 -0.032155 100 100 255
0.077230 -0.099808 -0.034118 100 100 255
0.258518 0.311615 -0.159336 100 100 255
-0.073985 -0.087720 0.001535 100 100 255
0.015135 0.285367 0.255400 100 100 255
-0.137304 0.093577 0.244284 100 100 255
-0.109542 -0.086046 -0.020707 100 100 255
0.059077 -0.254825 0.093020 100 100 255
-0.054279 -0.355193 0.058985 100 100 255
-0.042216 0.179633 0.190305 100 100 255
-0.106151 0.026373 0.140471 100 100 255
-0.077758 -0.123699 -0.045862 100 100 255
0.232015 -0.230236 0.140761 100 100 255
0.278756 -0.273889 -0.140537 100 100 255
-0.037627 0.222114 -0.073826 100 100 255
-0.165097 -0.010903 0.183412 100 100 255
-0.132898 -0.151185 0.060204 100 100 255
-0.003807 0.062074 -0.202466 100 100 255
-0.109567 -0.118496 0.030639 100 100 255
0.304157 -0.267293 0.095239 100 100 255
0.143540 0.018256 -0.378739 100 100 255
0.070915 -0.268702 0.149694 100 100 255
0.127483 -0.132529 0.091592 100 100 255
0.000561 0.117087 0.139950 100 100 255
0.238337 -0.137955 0.120180 100 100 255
-0.081143 -0.010147 -0.055995 100 100 255
0.200815 0.233848 0.195775 100 100 255
-0.059474 -0.268613 0.035174 100 100 255
0.169061 0.085576 0.310552 100 100 255
-0.159139 -0.101935 0.057777 100 100 255
0.012740 0.034188 0.135972 100 100 255
0.203419 -0.292961 -0.012279 100 100 255
0.264551 0.182209 0.111209 100 100 255
0.002336 -0.097845 0.024127 100 100 255
0.048218 -0.078186 0.103758 100 100 255
0.222577 -0.165321 0.058518 100 100 255
-0.111445 -0.032925 0.301911 100 100 255
-0.239125 -0.066451 0.017548 100 100 255
-0.229956 0.270828 -0.075022 100 100 255
-0.079707 0.035591 -0.192530 100 100 255
-0.099727 0.226087 -0.142551 100 100 255
-0.184978 -0.012062 0.073013 100 100 255
-0.219562 0.534901 -0.079647 100 100 255
-0.065436 0.023436 0.355495 100 100 255
-0.033984 -0.305783 0.261168 100 100 255
0.279188 0.197165 -0.069471 100 100 255
0.298630 -0.115542 0.031836 100 100 255
0.516486 -0.189011 0.075248 100 100 255
0.023406 -0.023684 -0.208477 100 100 255
0.196616 0.053378 0.247020 100 100 255
-0.190279 -0.070147 -0.109515 100 100 255
-0.013301 0.094195 -0.138710 100 100 255
0.050275 0.126845 0.270812 100 100 255
0.146681 -0.062250 0.295056 100 100 255
-0.235119 0.104653 -0.020735 100 100 255
-0.219519 -0.242291 -0.029354 100 100 255
-0.180146 0.128938 -0.061237 100 100 255
0.053149 0.018692 0.064561 100 100 255
-0.193441 0.338245 -0.002869 100 100 255
0.033840 -0.020813 -0.058927 100 100 255
-0.143869 0.018069 -0.267251 100 100 255
0.095716 0.144224 -0.179469 100 100 255
-0.507075 0.222944 0.090664 100 100 255
-0.145013 -0.064596 -0.062375 100 100 255
-0.417890 0.089081 0.288295 100 100 255
0.288062 0.228573 -0.150185 100 100 255
-0.220702 -0.003513 -0.040894 100 100 255
0.111615 -0.185762 -0.447955 100 100 255
-0.068206 -0.017176 0.149577 100 100 255
0.168845 0.016390 -0.078930 100 100 255
-0.069915 -0.015822 -0.004703 100 100 255
0.085794 0.010935 -0.074570 100 100 255
-0.005004 0.042830 0.110431 100 100 255
-0.115724 0.006682 0.018316 100 100 255
0.086578 0.091997 -0.374847 100 100 255
-0.156359 -0.203420 0.267193 100 100 255
-0.213351 -0.081785 -0.013876 100 100 255
0.067253 -0.248020 -0.161890 100 100 255
-0.219869 -0.186561 0.165147 100 100 255
-0.021272 0.109185 0.063215 100 100 255
-0.000612 0.062337 0.118582 100 100 255
0.083329 0.137939 0.114503 100 100 255
-0.034940 -0.216972 0.209498 100 100 255
0.083220 -0.073120 0.123432 100 100 255
0.096857 0.282436 -0.201926 100 100 255
-0.254218 0.248631 0.198473 100 100 255
0.315195 0.270968 0.353473 100 100 255
-0.126666 -0.055944 0.073012 100 100 255
0.122698 0.062525 0.393015 100 100 255
0.176221 -0.198179 0.022999 100 100 255
0.313945 0.167918 -0.073505 100 100 255
-0.203128 -0.020563 0.260512 100 100 255
0.249967 0.278906 -0.129844 100 100 255
0.274580 0.109053 0.044749 100 100 255
0.110641 -0.099540 -0.271900 100 100 255
-0.400841 -0.248732 0.332883 100 100 255
-0.146020 0.274899 0.064779 100 100 255
-0.117846 -0.351345 -0.180811 100 100 255
-0.150779 -0.312395 -0.104169 100 100 255
-0.115218 -0.426355 0.075070 100 100 255
-0.041320 -0.549116 0.035441 100 100 255
0.331973 0.281874 0.297523 100 100 255
0.059952 -0.127625 -0.072018 100 100 255
0.129252 -0.106450 -0.083218 100 100 255
0.252461 -0.001005 0.136430 100 100 255
0.057976 0.015188 0.171272 100 100 255
0.051927 -0.090921 -0.151912 100 100 255
0.282512 -0.297925 -0.115100 100 100 255
0.060397 -0.075532 0.010922 100 100 255
0.062435 -0.115701 -0.076495 100 100 255
-0.047178 -0.092169 0.041706 100 100 255
-0.161809 0.249464 0.014526 100 100 255
0.219401 0.245121 -0.052642 100 100 255
0.000373 0.066029 0.222575 100 100 255
-0.386852 -0.055016 -0.039382 100 100 255
-0.038160 -0.120502 -0.227941 100 100 255
-0.120797 0.260456 0.041516 100 100 255
-0.218982 0.297550 -0.160402 100 100 255
-0.153614 0.229447 0.080907 100 100 255
-0.072195 -0.157958 -0.285212 100 100 255
-0.386862 -0.050289 -0.065053 100 100 255
-0.060783 0.313177 -0.062985 100 100 255
-0.020626 0.061929 0.076272 100 100 255
-0.071506 -0.048757 -0.179261 100 100 255
-0.087890 0.477848 -0.149791 100 100 255
-0.208262 0.391424 0.145448 100 100 255
0.213471 0.062948 0.245166 100 100 255
0.030531 -0.115775 -0.066531 100 100 255
0.225841 0.039334 -0.164649 100 100 255
0.198471 0.019657 -0.356076 100 100 255
-0.109912 -0.042779 0.165169 100 100 255
-0.018123 0.247246 0.256999 100 100 255
0.073252 0.021657 0.020551 100 100 255
0.176831 -0.169885 0.073602 100 100 255
0.270891 -0.030380 -0.023406 100 100 255
-0.183955 0.416926 -0.229757 100 100 255
-0.021421 0.215639 -0.109770 100 100 255
0.109702 0.055103 -0.250057 100 100 255
-0.023458 -0.354254 0.114446 100 100 255
0.134495 -0.004767 0.032460 100 100 255
-0.385258 0.157569 -0.022053 100 100 255
-0.073060 -0.080538 -0.153903 100 100 255
0.050423 0.185980 -0.084544 100 100 255
0.033084 -0.117217 -0.032523 100 100 255
-0.227491 0.101459 -0.066333 100 100 255
-0.075657 -0.013697 0.063804 100 100 255
-0.228660 -0.162223 -0.433278 100 100 255
-0.124607 0.130543 0.048509 100 100 255
0.307209 -0.182485 -0.147336 100 100 255
-0.297235 -0.034920 -0.025180 100 100 255
0.014654 0.187242 0.218168 100 100 255
-0.141512 0.055008 0.206804 100 100 255
0.163674 0.154933 0.157914 100 100 255
0.308319 -0.238123 -0.013098 100 100 255
0.079930 -0.226538 0.330142 100 100 255
-0.346186 0.008505 0.084185 100 100 255
-0.143025 -0.176983 0.147218 100 100 255
0.329100 0.284699 0.029346 100 100 255
-0.134855 0.037129 -0.235714 100 100 255
0.061568 0.114141 0.237151 100 100 255
0.123436 0.189246 -0.003853 100 100 255
0.029023 0.139041 -0.094653 100 100 255
-0.101444 0.043499 -0.190694 100 100 255
-0.078914 0.161531 0.211875 100 100 255
-0.028760 0.124918 0.071707 100 100 255
-0.054983 -0.149893 -0.476969 100 100 255
0.049657 -0.335742 0.076646 100 100 255
-0.047498 0.105581 0.078102 100 100 255
-0.017551 -0.217253 0.149158 100 100 255
0.005798 -0.100200 -0.136931 100 100 255
-0.429322 0.313861 0.006108 100 100 255
0.300776 -0.037304 0.006942 100 100 255
-0.251525 0.115250 -0.046257 100 100 255
-0.347554 0.069279 -0.020473 100 100 255
-0.225220 0.078905 -0.003119 100 100 255
0.157484 -0.015362 0.080791 100 100 255
0.296965 0.102461 -0.026726 100 100 255
0.126395 0.062361 0.040058 100 100 255
-0.124196 0.046532 0.098862 100 100 255
-0.113158 0.251645 -0.182003 100 100 255
0.180079 0.146214 -0.011634 100 100 255
-0.554428 -0.188277 -0.097677 100 100 255
0.216271 -0.246398 0.210016 100 100 255
-0.025006 0.044506 0.010563 100 100 255
-0.114440 -0.054578 -0.377592 100 100 255
-0.234295 0.103927 -0.138207 100 100 255
-0.122595 0.283589 0.006917 100 100 255
0.049827 0.447880 0.064324 100 100 255
-0.096866 -0.189033 -0.112232 100 100 255
-0.089116 0.112931 0.066231 100 100 255
-0.284380 -0.035002 0.125810 100 100 255
-0.167381 0.001700 0.113326 100 100 255
0.129457 0.054556 -0.170318 100 100 255
-0.152333 -0.029162 -0.265972 100 100 255
0.217171 -0.089374 -0.246476 100 100 255
0.139184 -0.226326 -0.001234 100 100 255
-0.113568 0.013858 0.110818 100 100 255
-0.026788 -0.187906 -0.050191 100 100 255
0.057001 0.328551 -0.093488 100 100 255
-0.315352 0.407096 0.187078 100 100 255
-0.328471 -0.036319 0.166888 100 100 255
-0.038118 -0.295708 -0.313073 100 100 255
-0.192766 0.058207 0.037713 100 100 255
-0.084700 -0.193055 0.064961 100 100 255
0.086981 -0.249347 -0.304069 100 100 255
-0.260456 0.179146 0.270393 100 100 255
-0.102045 -0.343734 0.063486 100 100 255
0.128218 -0.318919 0.092181 100 100 255
-0.262677 0.412849 0.018330 100 100 255
0.255790 -0.034365 -0.043157 100 100 255
0.210807 -0.130428 0.010945 100 100 255
0.273136 -0.112441 0.038411 100 100 255
-0.063956 0.140754 0.343048 100 100 255
-0.165693 -0.099601 0.076437 100 100 255
0.249100 -0.102201 0.099977 100 100 255
0.200774 0.106181 -0.100837 100 100 255
-0.184569 -0.298336 0.170016 100 100 255
-0.189178 -0.097676 0.142223 100 100 255
-0.192072 0.141502 -0.046898 100 100 255
-0.248354 -0.074999 -0.071352 100 100 255
0.013367 0.082307 0.513301 100 100 255
0.213049 0.395919 -0.215797 100 100 255
0.201762 0.429016 0.515143 100 100 255
-0.137235 0.089640 -0.022709 100 100 255
-0.291587 0.244572 -0.227390 100 100 255
-0.010677 0.075364 -0.075388 100 100 255
0.015812 0.028290 -0.066506 100 100 255
-0.232603 -0.118974 -0.066867 100 100 255
-0.135710 -0.516567 0.017252 100 100 255
0.061530 -0.117699 0.189929 100 100 255
0.342589 -0.025934 0.176115 100 100 255
0.376454 -0.050536 0.066676 100 100 255
-0.074484 -0.114830 0.175879 100 100 255
-0.007705 0.071610 -0.077863 100 100 255
-0.072328 0.141400 -0.292289 100 100 255
-0.005635 -0.140827 -0.038329 100 100 255
0.148044 -0.174930 -0.062409 100 100 255
-0.317195 0.238018 -0.012790 100 100 255
0.116120 0.098123 -0.224221 100 100 255
0.387852 0.074094 0.117034 100 100 255
-0.066323 0.106086 -0.123918 100 100 255
-0.108229 0.109507 -0.023418 100 100 255
0.047676 -0.309643 -0.066831 100 100 255
-0.212887 -0.363864 0.141450 100 100 255
0.105072 -0.067283 -0.116436 100 100 255
0.272692 0.207610 0.053443 100 100 255
-0.230809 0.089745 0.039496 100 100 255
-0.250063 0.084139 0.405691 100 100 255
0.252387 0.229339 0.037942 100 100 255
0.071040 -0.186262 0.134444 100 100 255
-0.263549 -0.169729 -0.033195 100 100 255
0.181497 0.192885 0.134259 100 100 255
0.049061 -0.263088 -0.038831 100 100 255
-0.253202 0.100976 0.125538 100 100 255
0.048841 -0.096626 -0.276255 100 100 255
0.159493 0.074898 -0.052893 100 100 255
0.186092 -0.149963 -0.198457 100 100 255
-0.154896 -0.056151 -0.114095 100 100 255
0.207020 0.438642 -0.167634 100 100 255
-0.139092 0.026925 -0.000561 100 100 255
-0.103793 0.145227 -0.110301 100 100 255
-0.056553 0.054683 -0.221470 100 100 255
-0.051880 0.172341 -0.052854 100 100 255
-0.435807 0.054252 0.026372 100 100 255
0.009467 0.112787 -0.572847 100 100 255
-0.189230 -0.274226 0.186148 100 100 255
-0.354314 0.256084 -0.261483 100 100 255
0.038001 0.158494 -0.015568 100 100 255
0.061182 -0.007601 -0.073055 100 100 255
-0.441143 -0.002297 0.026930 100 100 255
0.357200 -0.192559 0.081152 100 100 255
0.293810 0.073592 0.071071 100 100 255
0.271495 -0.117142 0.047971 100 100 255
-0.138561 0.127225 0.313600 100 100 255
-0.028813 -0.003508 0.142214 100 100 255
-0.083943 0.145816 -0.234540 100 100 255
-0.061687 0.199645 -0.368033 100 100 255
-0.118161 0.155079 -0.185531 100 100 255
0.072054 -0.257868 -0.066265 100 100 255
0.284966 0.253819 0.030629 100 100 255
0.031059 0.308119 0.093696 100 100 255
0.060249 0.157919 -0.048104 100 100 255
0.153115 -0.429298 0.298604 100 100 255
-0.316111 -0.353638 0.081949 100 100 255
-0.054063 0.014219 0.035125 100 100 255
-0.381022 0.462475 -0.522482 100 100 255
-0.138221 0.131153 0.024207 100 100 255
0.172163 0.221830 -0.175685 100 100 255
-0.063970 -0.029114 0.065653 100 100 255
-0.016877 -0.405748 -0.013017 100 100 255
0.093758 -0.193085 -0.074623 100 100 255
0.064851 0.336501 0.114803 100 100 255
-0.214944 0.409303 0.003918 100 100 255
-0.101167 -0.173580 0.243840 100 100 255
0.201679 -0.015087 0.280068 100 100 255
-0.002963 0.277148 0.236455 100 100 255
0.059432 -0.413452 0.090934 100 100 255
0.001716 0.054112 -0.024332 100 100 255
0.045342 0.113890 -0.340701 100 100 255
0.108957 0.015218 -0.291202 100 100 255
-0.005719 -0.071470 -0.011258 100 100 255
-0.235472 0.232100 0.113174 100 100 255
-0.288710 -0.031559 -0.168331 100 100 255
0.151584 0.169362 0.155146 100 100 255
0.108232 0.070444 -0.268091 100 100 255
-0.032570 0.192162 -0.285068 100 100 255
-0.034527 0.035310 0.322959 100 100 255
-0.094964 0.113999 -0.212749 100 100 255
0.082056 -0.137956 0.064262 100 100 255
0.522746 -0.246577 -0.058345 100 100 255
0.065607 -0.327000 -0.322646 100 100 255
-0.010166 0.024332 -0.245454 100 100 255
-0.308555 -0.168149 0.404910 100 100 255
0.321485 -0.093307 0.018419 100 100 255
-0.177056 -0.060373 0.478468 100 100 255
0.273802 0.316151 0.230336 100 100 255
-0.203102 -0.128572 0.008194 100 100 255
-0.096162 0.282317 0.041270 100 100 255
-0.159756 0.188422 0.207876 100 100 255
0.146797 0.066834 0.281513 100 100 255
-0.311012 -0.097568 -0.205420 100 100 255
0.110281 -0.018427 -0.410284 100 100 255
0.044164 0.167500 0.119192 100 100 255
-0.279764 0.125289 -0.091155 100 100 255
0.498001 -0.111851 0.017603 100 100 255
0.310785 -0.108951 -0.212687 100 100 255
0.213122 -0.259109 -0.217376 100 100 255
-0.019385 0.055057 -0.133017 100 100 255
-0.149436 -0.071249 -0.173765 100 100 255
0.155208 0.018788 -0.269047 100 100 255
0.466531 -0.108534 -0.124035 100 100 255
-0.357505 -0.208469 0.016031 100 100 255
0.089020 0.038641 -0.102356 100 100 255
-0.212602 -0.461377 -0.062103 100 100 255
0.052106 0.276236 0.007328 100 100 255
-0.027676 -0.091975 0.125065 100 100 255
0.045069 0.092710 0.050515 100 100 255
-0.054529 0.049583 0.172492 100 100 255
0.006384 0.150577 0.320303 100 100 255
-0.127550 -0.274288 0.012287 100 100 255
0.120498 -0.083652 -0.045291 100 100 255
-0.085833 0.286704 -0.025286 100 100 255
0.126140 0.223607 -0.042874 100 100 255
0.098563 0.159865 0.029194 100 100 255
0.309110 0.206095 -0.072704 100 100 255
0.118240 0.227148 0.088765 100 100 255
-0.209158 0.226991 -0.236609 100 100 255
-0.096445 0.072634 0.214022 100 100 255
0.110083 -0.073166 -0.181599 100 100 255
-0.046285 0.035491 -0.299746 100 100 255
-0.138212 0.056024 0.048848 100 100 255
0.047305 0.016737 -0.122746 100 100 255
-0.080358 0.322702 0.100607 100 100 255
-0.035099 0.045912 -0.244382 100 100 255
-0.092793 -0.393318 0.232185 100 100 255
-0.083643 -0.232896 0.107128 100 100 255
-0.100792 0.042105 0.049588 100 100 255
0.107357 0.179032 -0.106199 100 100 255
-0.001197 -0.188721 0.064878 100 100 255
-0.208066 -0.195048 -0.023662 100 100 255
0.273413 -0.086513 0.080614 100 100 255
-0.142075 0.007997 -0.055598 100 100 255
-0.386318 -0.216414 -0.108583 100 100 255
-0.191800 0.013853 -0.218640 100 100 255
0.413765 -0.097705 -0.015761 100 100 255
0.082619 -0.095482 0.517492 100 100 255
-0.146848 0.424867 -0.369156 100 100 255
0.085433 -0.413343 -0.042558 100 100 255
-0.321730 0.060706 0.019181 100 100 255
0.046955 -0.109701 -0.228559 100 100 255
0.034083 -0.092750 -0.158248 100 100 255
0.064505 -0.210827 -0.656486 100 100 255
-0.154140 -0.477735 0.076340 100 100 255
0.032283 -0.349898 -0.014101 100 100 255
-0.008250 -0.408461 -0.033255 100 100 255
0.442449 -0.162938 0.256476 100 100 255
0.064616 0.036930 0.381074 100 100 255
0.095057 -0.119882 -0.197184 100 100 255
-0.009645 0.024230 -0.201962 100 100 255
-0.146086 0.205131 0.169726 100 100 255
0.058696 -0.233596 -0.207871 100 100 255
-0.378135 -0.025810 0.047458 100 100 255
0.112874 0.068661 0.102512 100 100 255
0.000673 -0.202510 0.079125 100 100 255
-0.015154 0.111965 -0.194040 100 100 255
-0.020767 -0.529517 -0.158294 100 100 255
-0.199930 -0.204024 0.210099 100 100 255
-0.003167 0.134332 -0.080669 100 100 255
-0.112950 0.049108 -0.166337 100 100 255
0.062266 -0.079090 -0.099309 100 100 255
-0.353304 -0.062750 -0.114794 100 100 255
0.277471 -0.046708 0.226273 100 100 255
-0.365795 0.195788 -0.022684 100 100 255
0.117443 -0.187855 -0.006932 100 100 255
-0.007350 0.203296 -0.090879 100 100 255
0.307843 0.130707 -0.180003 100 100 255
-0.059955 -0.265034 0.178627 100 100 255
0.277564 0.208489 -0.331396 100 100 255
0.016374 0.357672 0.015918 100 100 255
0.216613 0.057942 -0.252207 100 100 255
-0.514984 -0.188293 0.136771 100 100 255
0.077452 -0.028597 0.067650 100 100 255
