ply
format ascii 1.0
element vertex 1182
property float x
property float y
property float z
property uchar red
property uchar green
property uchar blue
end_header
0.148740 0.028783 -0.294008 100 100 255
-0.023829 0.140066 -0.262721 100 100 255
-0.135856 0.082381 0.209785 100 100 255
-0.298149 -0.164102 -0.277395 100 100 255
-0.154604 -0.023865 -0.324753 100 100 255
0.025544 -0.306610 0.152512 100 100 255
0.045541 0.183760 -0.001847 100 100 255
0.034564 0.179750 -0.021491 100 100 255
0.106301 -0.180849 0.238843 100 100 255
-0.438991 0.241783 -0.203327 100 100 255
-0.053146 -0.377126 0.185175 100 100 255
0.061540 0.157047 -0.015083 100 100 255
-0.072662 0.171140 0.185385 100 100 255
0.505262 0.040515 -0.084392 100 100 255
-0.021295 -0.173966 -0.306398 100 100 255
-0.073453 0.120513 -0.157835 100 100 255
0.126471 -0.040173 0.270308 100 100 255
0.043479 0.060184 0.047667 100 100 255
0.240919 0.180901 0.292999 100 100 255
0.034721 0.211085 -0.622551 100 100 255
0.302144 -0.013458 0.183864 100 100 255
0.185220 0.143655 -0.075813 100 100 255
-0.059752 -0.162148 -0.122334 100 100 255
-0.025997 0.552838 -0.103757 100 100 255
0.124265 -0.083829 0.427499 100 100 255
-0.177375 0.078902 0.416483 100 100 255
0.363330 0.590701 0.157261 100 100 255
0.176338 0.048137 -0.053611 100 100 255
0.010890 0.470981 0.134511 100 100 255
-0.038206 -0.026960 0.287529 100 100 255
-0.217777 0.141085 -0.132587 100 100 255
-0.157044 0.073329 -0.422837 100 100 255
-0.008906 0.149268 -0.171447 100 100 255
-0.063045 0.224849 -0.005363 100 100 255
-0.091047 -0.164348 -0.033549 100 100 255
0.162756 -0.057370 -0.029212 100 100 255
0.266067 -0.013541 0.245250 100 100 255
0.159407 -0.289857 0.386784 100 100 255
-0.293389 0.114687 -0.096380 100 100 255
-0.092574 -0.212173 0.224244 100 100 255
0.460635 -0.162272 -0.238356 100 100 255
-0.272470 -0.391597 -0.111899 100 100 255
-0.361811 0.095892 -0.173244 100 100 255
-0.139391 0.188673 -0.080326 100 100 255
0.296335 -0.324221 0.051168 100 100 255
-0.212367 -0.086705 0.132419 100 100 255
-0.658894 -0.325193 -0.225768 100 100 255
0.214291 -0.475125 0.052023 100 100 255
0.129595 0.163259 -0.001880 100 100 255
-0.077588 -0.236052 -0.353451 100 100 255
-0.119741 -0.190915 -0.280201 100 100 255
0.600034 -0.011789 0.029841 100 100 255
-0.010860 0.171269 -0.030174 100 100 255
0.135534 0.039933 -0.025729 100 100 255
0.312638 -0.051845 -0.004293 100 100 255
-0.031795 0.178921 0.093245 100 100 255
0.054350 -0.044705 0.095815 100 100 255
-0.073318 -0.163376 0.542339 100 100 255
0.228589 -0.174192 -0.086187 100 100 255
0.024269 0.107331 0.055800 100 100 255
0.134619 0.666833 0.036912 100 100 255
-0.101928 0.092273 0.038160 100 100 255
0.480583 -0.180147 -0.142472 100 100 255
0.037138 0.075963 -0.038881 100 100 255
-0.096061 -0.377428 0.091702 100 100 255
0.027432 0.138288 0.068737 100 100 255
-0.189581 -0.119309 -0.369814 100 100 255
-0.445189 0.155558 -0.059898 100 100 255
-0.079406 0.482496 0.058377 100 100 255
0.403223 0.157742 -0.333000 100 100 255
0.297713 0.162270 -0.029575 100 100 255
0.129778 0.029664 0.329557 100 100 255
-0.290653 -0.200140 -0.296720 100 100 255
-0.096123 0.194808 -0.209564 100 100 255
-0.031253 -0.261149 0.151806 100 100 255
-0.024893 0.083049 0.148904 100 100 255
0.208783 -0.133290 -0.238079 100 100 255
0.425144 -0.130389 -0.272059 100 100 255
0.423259 0.276653 -0.020526 100 100 255
0.056845 -0.023243 0.091313 100 100 255
0.125977 0.174403 0.478397 100 100 255
-0.306341 0.330767 -0.028409 100 100 255
0.037910 -0.261640 -0.221535 100 100 255
0.394482 0.059867 0.164724 100 100 255
-0.175455 -0.186765 -0.084372 100 100 255
0.146079 -0.051994 0.151558 100 100 255
0.227980 0.102248 -0.245653 100 100 255
0.061849 0.146029 -0.037335 100 100 255
0.070201 -0.013643 -0.020453 100 100 255
0.003295 0.115512 -0.208915 100 100 255
0.227805 -0.271984 -0.122532 100 100 255
-0.223357 -0.024140 0.381531 100 100 255
0.113666 -0.012023 0.007803 100 100 255
0.152341 -0.105142 -0.193473 100 100 255
0.128498 0.202098 0.189834 100 100 255
0.125746 -0.195683 0.178702 100 100 255
0.112592 0.113710 -0.056434 100 100 255
-0.378410 -0.140160 -0.095644 100 100 255
-0.242809 0.143216 -0.153232 100 100 255
-0.019549 0.214368 0.109043 100 100 255
-0.077623 -0.155012 0.067946 100 100 255
0.190600 0.131096 -0.101558 100 100 255
-0.285585 0.173636 0.047943 100 100 255
-0.121968 -0.147800 0.305746 100 100 255
-0.177426 -0.298972 -0.070922 100 100 255
-0.154683 -0.085421 0.063237 100 100 255
-0.200186 0.252404 0.366981 100 100 255
0.020580 -0.132829 0.047479 100 100 255
0.173741 0.478232 -0.076414 100 100 255
0.246565 0.186080 0.126457 100 100 255
0.084208 -0.329463 0.073465 100 100 255
0.135381 0.183431 0.169990 100 100 255
0.215909 0.082430 0.062132 100 100 255
0.184149 0.000476 -0.292169 100 100 255
0.054883 0.415548 -0.199487 100 100 255
0.116641 -0.025350 0.003614 100 100 255
0.041345 0.261264 0.003165 100 100 255
0.229216 -0.134219 0.267745 100 100 255
0.175515 0.043253 0.286520 100 100 255
-0.297161 -0.199756 -0.079417 100 100 255
-0.099744 0.013760 0.591574 100 100 255
-0.227368 -0.157650 -0.033624 100 100 255
-0.332052 -0.017195 0.101950 100 100 255
-0.224405 -0.180156 0.119865 100 100 255
0.009101 -0.440066 0.138214 100 100 255
0.167500 -0.078959 -0.154738 100 100 255
0.046438 0.346298 -0.027461 100 100 255
0.256362 -0.041403 -0.295460 100 100 255
-0.006436 0.045095 -0.123880 100 100 255
-0.022716 -0.270653 0.022226 100 100 255
0.153832 -0.135130 0.015162 100 100 255
-0.334378 -0.105131 0.340524 100 100 255
-0.207299 0.021082 0.291409 100 100 255
0.068397 0.004375 -0.324413 100 100 255
0.110727 -0.059442 -0.128019 100 100 255
0.079429 0.187370 0.125966 100 100 255
0.040434 -0.061199 -0.119901 100 100 255
-0.563933 0.063027 -0.069734 100 100 255
0.164452 -0.231891 0.377675 100 100 255
0.065057 -0.306669 0.005628 100 100 255
0.415541 0.160095 0.060739 100 100 255
-0.016078 -0.078512 0.424146 100 100 255
-0.018776 -0.156861 0.482677 100 100 255
-0.469318 0.264582 0.274429 100 100 255
0.219579 -0.262213 -0.023535 100 100 255
0.165108 -0.322268 0.244404 100 100 255
0.516144 -0.083078 -0.056873 100 100 255
-0.040297 0.097838 -0.215137 100 100 255
-0.278698 0.037443 -0.041875 100 100 255
0.103917 0.055943 -0.004174 100 100 255
-0.100998 -0.130834 0.141067 100 100 255
-0.068381 -0.175619 0.030686 100 100 255
0.153360 0.308625 0.181156 100 100 255
0.197270 -0.195306 0.347282 100 100 255
-0.434662 0.146252 0.238674 100 100 255
-0.180715 -0.176837 0.064198 100 100 255
0.153454 0.443246 0.267584 100 100 255
-0.322410 -0.342066 0.056215 100 100 255
0.032910 0.188294 0.118776 100 100 255
-0.089419 -0.138512 -0.045046 100 100 255
-0.219977 0.217430 0.008160 100 100 255
-0.312116 -0.131455 -0.598457 100 100 255
-0.114844 0.294703 0.164096 100 100 255
-0.016719 0.001582 0.162283 100 100 255
-0.162585 -0.115410 -0.012526 100 100 255
0.184169 0.157139 -0.346751 100 100 255
-0.084198 0.049758 0.019160 100 100 255
0.024948 0.221314 -0.294907 100 100 255
-0.200138 -0.123707 -0.290477 100 100 255
-0.111478 0.100571 -0.407878 100 100 255
0.270772 -0.111122 0.019430 100 100 255
-0.123960 -0.097233 0.217293 100 100 255
0.220983 -0.230456 -0.302639 100 100 255
-0.061769 -0.188275 0.277599 100 100 255
0.069111 -0.093251 0.006722 100 100 255
0.228130 -0.015654 0.479047 100 100 255
-0.076703 0.031874 -0.048757 100 100 255
-0.134667 0.287530 0.121586 100 100 255
-0.173989 -0.265929 -0.414053 100 100 255
-0.012138 0.042432 0.113204 100 100 255
-0.265758 -0.268865 0.225437 100 100 255
-0.210788 -0.214438 0.189129 100 100 255
-0.000888 -0.262710 -0.052724 100 100 255
0.056820 0.306014 -0.229631 100 100 255
-0.150476 0.054519 -0.173785 100 100 255
0.043921 0.083421 -0.336432 100 100 255
0.000428 0.451044 0.069819 100 100 255
-0.243545 0.005135 -0.054019 100 100 255
-0.284419 0.107172 0.077512 100 100 255
0.161048 0.079711 -0.037754 100 100 255
0.116303 -0.162075 0.324857 100 100 255
0.176880 0.054521 -0.387255 100 100 255
-0.298350 -0.314156 0.076902 100 100 255
0.236426 -0.246277 -0.022978 100 100 255
-0.149425 -0.398362 -0.404198 100 100 255
-0.083818 -0.269375 -0.039474 100 100 255
0.124983 0.020559 0.057643 100 100 255
-0.001259 0.122743 0.127156 100 100 255
-0.011553 -0.050676 -0.035505 100 100 255
0.282847 -0.351980 -0.272012 100 100 255
0.039355 0.079373 -0.029143 100 100 255
0.287558 0.293792 0.107613 100 100 255
-0.214030 0.343851 -0.358566 100 100 255
-0.079193 -0.122905 -0.163225 100 100 255
0.199016 -0.102654 0.083704 100 100 255
-0.152243 -0.118898 -0.093245 100 100 255
-0.215687 -0.314062 0.403094 100 100 255
0.196326 -0.206360 -0.398719 100 100 255
0.006104 0.055679 0.509912 100 100 255
-0.081876 -0.144836 0.124326 100 100 255
0.028603 -0.057948 0.037938 100 100 255
-0.123309 0.242109 0.228291 100 100 255
0.115616 -0.166371 -0.202052 100 100 255
-0.196793 0.145305 0.299063 100 100 255
-0.214572 -0.146943 0.067375 100 100 255
0.068941 -0.161403 0.340457 100 100 255
0.392922 0.012506 0.561101 100 100 255
0.027785 -0.088416 -0.031291 100 100 255
0.003082 0.114118 -0.071990 100 100 255
0.047625 0.227079 -0.273283 100 100 255
-0.020857 0.162584 0.241299 100 100 255
-0.366830 -0.205004 0.226266 100 100 255
-0.128750 0.112982 0.074422 100 100 255
0.152371 0.088797 0.363065 100 100 255
-0.024429 0.063067 0.025588 100 100 255
0.066917 0.161875 0.118459 100 100 255
-0.259431 -0.043308 0.278305 100 100 255
-0.037907 -0.170545 -0.231916 100 100 255
0.140817 -0.265439 0.141223 100 100 255
0.181585 -0.411257 0.186236 100 100 255
-0.257312 0.016827 -0.144527 100 100 255
-0.149104 0.291088 0.133443 100 100 255
0.347443 0.128782 -0.111142 100 100 255
0.067122 -0.020911 -0.024979 100 100 255
-0.036126 0.085746 -0.474693 100 100 255
-0.230013 -0.191236 0.053175 100 100 255
-0.088967 0.284773 0.270255 100 100 255
0.006332 0.029680 -0.244296 100 100 255
-0.087521 -0.158014 0.071941 100 100 255
0.283913 -0.445044 -0.029252 100 100 255
-0.058125 -0.276787 0.068043 100 100 255
-0.020700 0.261325 -0.099327 100 100 255
-0.244561 -0.150178 0.401964 100 100 255
0.075500 -0.286976 0.238609 100 100 255
0.424165 -0.112502 -0.008068 100 100 255
0.108005 0.442190 0.022578 100 100 255
0.126059 -0.511252 -0.367462 100 100 255
-0.035706 -0.306260 0.026587 100 100 255
-0.022742 -0.387694 0.294307 100 100 255
0.009759 -0.193435 -0.066842 100 100 255
0.199785 -0.000501 -0.439329 100 100 255
-0.034705 -0.056786 0.123812 100 100 255
-0.010754 0.054170 -0.145745 100 100 255
-0.141257 0.092169 -0.219403 100 100 255
-0.544567 0.115335 -0.055381 100 100 255
0.081806 -0.011176 0.069889 100 100 255
-0.278761 -0.234105 0.114141 100 100 255
0.338382 -0.201151 0.108112 100 100 255
0.119907 -0.154671 0.009424 100 100 255
0.126016 0.012269 -0.102030 100 100 255
0.079855 -0.186509 -0.028114 100 100 255
-0.171127 -0.036112 -0.276270 100 100 255
0.064687 0.076053 -0.021598 100 100 255
0.051958 -0.106145 0.165947 100 100 255
0.202902 -0.336093 -0.178471 100 100 255
0.140113 -0.000489 -0.236160 100 100 255
-0.190312 0.231137 0.041507 100 100 255
0.159115 -0.154112 0.411843 100 100 255
0.155786 0.170294 0.001758 100 100 255
-0.196324 -0.175062 0.112249 100 100 255
0.417280 0.101905 -0.160714 100 100 255
-0.151887 0.002608 -0.118224 100 100 255
0.324888 0.164719 -0.094604 100 100 255
0.032801 -0.008442 -0.242395 100 100 255
0.043081 0.408626 0.073562 100 100 255
0.074882 0.260267 0.230600 100 100 255
0.302983 0.419926 0.096337 100 100 255
0.320673 -0.265830 -0.115602 100 100 255
0.169851 0.022356 0.346037 100 100 255
-0.156198 -0.281935 0.068566 100 100 255
-0.277315 0.124982 0.211444 100 100 255
-0.240024 -0.313765 -0.425024 100 100 255
0.192255 -0.094345 -0.125675 100 100 255
-0.046603 0.260561 -0.088793 100 100 255
0.200483 0.069460 0.207754 100 100 255
0.171272 0.054928 -0.232942 100 100 255
-0.236011 0.438472 -0.047817 100 100 255
0.048289 0.072137 -0.403442 100 100 255
-0.092044 -0.005109 0.021821 100 100 255
-0.152991 -0.097940 -0.270596 100 100 255
0.162257 -0.065845 0.142779 100 100 255
-0.130268 -0.409825 0.001417 100 100 255
0.251649 -0.398206 0.191152 100 100 255
0.055793 -0.036411 -0.024605 100 100 255
0.336026 -0.310515 0.291076 100 100 255
0.234019 0.271617 0.047312 100 100 255
0.028878 0.040328 -0.394612 100 100 255
0.024597 -0.060864 -0.034503 100 100 255
0.648389 -0.139267 0.159496 100 100 255
-0.203056 -0.020912 -0.200525 100 100 255
-0.189731 0.130083 0.020697 100 100 255
0.094024 -0.237924 0.177000 100 100 255
-0.190192 0.101755 0.305499 100 100 255
0.011381 -0.202314 -0.007890 100 100 255
-0.007105 -0.120938 0.447760 100 100 255
-0.069845 0.415155 -0.035100 100 100 255
-0.175572 0.288542 0.146530 100 100 255
-0.239865 -0.075228 0.203621 100 100 255
-0.084010 0.021821 0.028989 100 100 255
-0.086156 -0.253052 -0.131817 100 100 255
-0.220197 0.287735 0.149172 100 100 255
0.244353 -0.199863 -0.138936 100 100 255
0.143232 -0.027267 0.252404 100 100 255
-0.075564 -0.364939 0.026715 100 100 255
0.029792 0.493333 -0.096883 100 100 255
0.090737 0.077105 -0.200639 100 100 255
0.311456 -0.194015 -0.089321 100 100 255
0.156724 -0.100665 0.381690 100 100 255
0.250857 0.037178 -0.039300 100 100 255
0.233425 -0.341759 -0.430587 100 100 255
0.088241 0.366355 0.010654 100 100 255
0.087287 0.172641 0.411662 100 100 255
-0.114727 0.042042 0.109336 100 100 255
0.000384 -0.146056 -0.184598 100 100 255
0.401664 0.083637 0.141580 100 100 255
0.105954 -0.304023 -0.214961 100 100 255
0.258233 -0.124820 -0.050875 100 100 255
0.294337 0.004033 0.293842 100 100 255
0.114950 -0.374367 0.090226 100 100 255
-0.167860 0.124994 0.001576 100 100 255
-0.120478 0.097316 -0.318219 100 100 255
-0.154795 0.035378 0.231932 100 100 255
0.219524 0.008053 0.161366 100 100 255
-0.002091 -0.279197 -0.287975 100 100 255
0.338814 -0.099067 0.122083 100 100 255
-0.158792 0.012294 0.028620 100 100 255
0.310730 -0.068551 0.018973 100 100 255
-0.020037 0.022670 0.033121 100 100 255
-0.170645 0.208976 -0.023489 100 100 255
0.081316 -0.449316 0.078467 100 100 255
0.380742 0.190438 -0.170961 100 100 255
-0.051337 -0.116697 0.052474 100 100 255
-0.152488 -0.086011 0.294152 100 100 255
-0.035877 0.222404 -0.117735 100 100 255
0.130796 -0.048663 0.148491 100 100 255
0.088240 -0.199017 -0.084112 100 100 255
0.254727 -0.534903 -0.310759 100 100 255
-0.051881 0.087296 0.492272 100 100 255
-0.206778 0.497099 0.390515 100 100 255
0.190778 0.059491 -0.308897 100 100 255
0.255159 0.124271 -0.183207 100 100 255
-0.081235 -0.062148 -0.076092 100 100 255
-0.035991 0.192724 0.041003 100 100 255
0.171588 -0.271139 0.046517 100 100 255
0.293758 -0.006017 -0.212136 100 100 255
0.178159 -0.055964 -0.207051 100 100 255
0.067796 -0.220966 0.075873 100 100 255
-0.443615 -0.014806 0.190500 100 100 255
-0.136640 0.174682 0.067683 100 100 255
0.202248 -0.130286 0.061292 100 100 255
0.368222 -0.048950 0.330780 100 100 255
0.274688 -0.239190 -0.041647 100 100 255
0.009378 -0.126936 0.072582 100 100 255
0.070396 -0.201421 0.009886 100 100 255
0.150353 0.050904 -0.021295 100 100 255
0.380965 0.117256 -0.548852 100 100 255
-0.070138 0.023656 0.243445 100 100 255
0.046074 0.372605 0.234850 100 100 255
0.144547 0.162643 -0.022648 100 100 255
0.251339 0.306268 -0.022080 100 100 255
-0.384041 -0.006705 0.030441 100 100 255
0.070246 -0.258422 -0.051077 100 100 255
0.029687 0.145846 -0.447969 100 100 255
0.217678 -0.191622 0.160615 100 100 255
0.055919 0.202494 -0.048566 100 100 255
0.117625 -0.375736 -0.235675 100 100 255
0.246600 -0.197585 -0.032901 100 100 255
-0.106405 0.250921 0.249728 100 100 255
-0.111147 -0.093285 -0.338234 100 100 255
0.100263 -0.095856 -0.035678 100 100 255
0.122201 -0.202268 0.125606 100 100 255
-0.377112 -0.010788 0.104603 100 100 255
0.464123 -0.075185 0.203211 100 100 255
0.284060 -0.187226 0.024695 100 100 255
-0.571393 -0.019817 -0.211455 100 100 255
0.218018 0.012184 0.116876 100 100 255
-0.133899 -0.491747 0.178699 100 100 255
-0.159515 -0.383859 0.213674 100 100 255
-0.202130 0.083637 -0.044574 100 100 255
0.025821 -0.182178 -0.186346 100 100 255
0.219568 0.154622 0.221704 100 100 255
-0.257342 0.001394 -0.176110 100 100 255
-0.085102 0.080429 -0.013871 100 100 255
0.141019 0.097615 -0.363920 100 100 255
0.095173 0.131677 -0.058073 100 100 255
-0.402295 -0.018236 -0.005304 100 100 255
-0.598642 0.320792 -0.049845 100 100 255
-0.151588 -0.270571 -0.120931 100 100 255
0.039698 -0.513422 -0.061525 100 100 255
-0.194882 -0.194279 0.373813 100 100 255
-0.181793 0.112520 -0.332296 100 100 255
-0.084693 -0.036243 0.027313 100 100 255
0.040062 0.337757 -0.357626 100 100 255
0.242622 0.159502 0.088084 100 100 255
-0.245961 -0.205053 -0.424268 100 100 255
-0.423833 -0.122876 -0.232423 100 100 255
-0.048186 0.271415 0.006245 100 100 255
0.061724 0.107203 0.018221 100 100 255
0.121475 -0.027918 -0.015046 100 100 255
0.260629 -0.031959 -0.111880 100 100 255
-0.128894 0.110515 0.451946 100 100 255
-0.510338 -0.289704 -0.129048 100 100 255
0.275735 -0.066938 0.041974 100 100 255
-0.397414 -0.411891 0.260650 100 100 255
0.202808 0.162477 0.391802 100 100 255
0.115280 -0.051389 -0.055274 100 100 255
0.413085 -0.219256 -0.474430 100 100 255
0.202822 -0.020174 0.215073 100 100 255
0.442373 -0.009910 -0.207096 100 100 255
-0.146600 -0.296730 0.299894 100 100 255
-0.028700 -0.015332 0.363001 100 100 255
-0.208205 0.045233 0.064907 100 100 255
0.107142 0.148378 -0.111261 100 100 255
-0.089066 0.030203 -0.303304 100 100 255
0.147616 0.377344 0.036096 100 100 255
-0.184693 -0.209772 -0.449282 100 100 255
-0.207882 0.065456 0.359322 100 100 255
-0.047881 0.040877 -0.052018 100 100 255
0.096647 -0.266767 -0.163270 100 100 255
0.221487 0.176985 0.189996 100 100 255
0.158563 0.107719 -0.015395 100 100 255
0.059727 0.213471 -0.105331 100 100 255
0.054856 0.487929 0.146421 100 100 255
0.060919 0.089081 0.070875 100 100 255
-0.215210 0.326808 0.246610 100 100 255
-0.093644 0.068327 -0.097241 100 100 255
-0.070718 0.476437 0.182426 100 100 255
-0.022860 0.125276 0.069351 100 100 255
0.035753 -0.090207 -0.220847 100 100 255
0.126415 0.071253 0.360294 100 100 255
0.054997 -0.221082 -0.311396 100 100 255
-0.211442 0.149164 -0.125665 100 100 255
-0.120114 -0.088964 0.218154 100 100 255
-0.219633 0.081024 0.019134 100 100 255
0.210103 0.381134 -0.103168 100 100 255
0.207554 0.133588 -0.066328 100 100 255
0.439522 -0.015821 0.565077 100 100 255
0.440797 0.450117 -0.234549 100 100 255
-0.018544 -0.067278 0.561697 100 100 255
0.027403 -0.159303 0.310159 100 100 255
0.506598 0.343382 0.026221 100 100 255
-0.033885 0.411634 -0.072601 100 100 255
-0.058386 -0.312054 0.342489 100 100 255
0.253167 -0.473760 0.209033 100 100 255
0.127090 0.311521 -0.304367 100 100 255
-0.113177 0.451416 0.097536 100 100 255
-0.456898 -0.375784 -0.377614 100 100 255
-0.112760 -0.082572 -0.229386 100 100 255
-0.264836 0.057008 0.119454 100 100 255
-0.133079 0.411152 0.168019 100 100 255
0.181937 -0.362289 -0.022400 100 100 255
0.652862 -0.016995 0.261421 100 100 255
0.050943 -0.005729 -0.088200 100 100 255
-0.007692 0.155814 -0.146275 100 100 255
-0.257468 -0.007727 -0.094135 100 100 255
0.088477 0.296855 0.299471 100 100 255
0.267372 0.023132 -0.046136 100 100 255
0.024620 0.283724 0.040647 100 100 255
-0.161393 -0.276422 0.320005 100 100 255
-0.670901 -0.258869 0.011638 100 100 255
-0.146829 0.132593 0.013910 100 100 255
0.009407 0.209594 -0.062887 100 100 255
-0.071309 -0.162760 0.248420 100 100 255
-0.124710 -0.459549 -0.127616 100 100 255
0.195318 -0.238972 0.121401 100 100 255
0.270059 -0.013539 -0.219801 100 100 255
0.126325 -0.008971 -0.267034 100 100 255
-0.036055 0.036467 0.009740 100 100 255
0.182310 -0.240946 0.214429 100 100 255
-0.088933 -0.092378 0.137908 100 100 255
-0.018895 -0.392919 -0.202017 100 100 255
0.182126 -0.123240 -0.468781 100 100 255
-0.002088 0.206831 -0.319515 100 100 255
0.191119 0.283973 0.001653 100 100 255
-0.209454 -0.135360 0.060121 100 100 255
-0.095334 0.482497 0.252475 100 100 255
0.038320 0.137210 -0.266258 100 100 255
0.093323 -0.045669 -0.235270 100 100 255
-0.062744 0.004950 -0.062422 100 100 255
0.083085 0.133396 -0.151001 100 100 255
-0.133610 -0.140309 -0.190214 100 100 255
-0.196582 -0.008693 -0.013065 100 100 255
-0.110175 0.180169 -0.218068 100 100 255
0.056089 0.083890 -0.202018 100 100 255
0.093619 -0.163751 0.352976 100 100 255
0.314777 0.147715 0.049010 100 100 255
-0.079838 0.056397 0.115613 100 100 255
0.001302 -0.056071 -0.236117 100 100 255
-0.228141 -0.113350 0.001735 100 100 255
0.033588 -0.285731 0.088568 100 100 255
-0.158377 0.163526 -0.073688 100 100 255
0.079330 0.097060 -0.071374 100 100 255
0.048403 0.149894 0.070396 100 100 255
-0.044561 -0.466750 -0.113314 100 100 255
-0.261140 -0.273294 -0.108676 100 100 255
-0.120600 0.048870 -0.262789 100 100 255
-0.383275 -0.257461 0.364137 100 100 255
0.269180 0.473481 0.362015 100 100 255
0.073310 -0.102742 0.034524 100 100 255
-0.200283 -0.437885 -0.012228 100 100 255
0.382257 0.145384 0.023075 100 100 255
-0.018477 0.277210 0.553132 100 100 255
-0.149010 -0.181141 -0.071474 100 100 255
-0.125741 -0.206465 0.032949 100 100 255
-0.020882 0.014181 0.218821 100 100 255
0.163247 0.487325 -0.284521 100 100 255
-0.004908 -0.257237 -0.055469 100 100 255
-0.051199 -0.237918 -0.169304 100 100 255
0.053538 0.101076 -0.256280 100 100 255
0.196476 0.284438 0.046742 100 100 255
-0.299502 0.129815 -0.385660 100 100 255
0.033862 -0.481570 -0.237349 100 100 255
-0.029230 -0.278634 0.003851 100 100 255
0.181664 -0.067985 -0.240319 100 100 255
0.136661 -0.030450 0.350628 100 100 255
-0.089623 0.306889 0.060331 100 100 255
-0.192971 -0.200520 0.362585 100 100 255
-0.437597 -0.243751 -0.088561 100 100 255
0.256507 -0.210268 -0.187001 100 100 255
0.014886 0.190636 0.028867 100 100 255
0.065328 -0.029954 -0.005418 100 100 255
-0.221592 -0.350900 -0.131390 100 100 255
-0.035629 0.254833 0.234153 100 100 255
-0.127588 0.048869 -0.292468 100 100 255
-0.222593 -0.091241 0.131546 100 100 255
0.340399 -0.296049 -0.269147 100 100 255
0.006192 0.058477 -0.385450 100 100 255
-0.162789 0.160589 0.171221 100 100 255
-0.601487 -0.292584 0.050914 100 100 255
-0.133330 0.033892 -0.534841 100 100 255
0.312143 0.084464 0.519053 100 100 255
-0.519456 0.172397 0.113049 100 100 255
0.421386 -0.074455 -0.052295 100 100 255
-0.272268 -0.369838 0.006420 100 100 255
-0.321786 -0.054819 -0.150961 100 100 255
0.070796 0.088069 0.259919 100 100 255
-0.094801 -0.100618 0.270261 100 100 255
-0.332812 0.315575 0.019225 100 100 255
-0.063491 -0.131115 -0.149752 100 100 255
-0.094019 0.086231 -0.320214 100 100 255
-0.467317 0.156581 -0.347514 100 100 255
0.049446 0.023957 -0.234177 100 100 255
-0.163277 0.274282 -0.321014 100 100 255
0.193299 -0.423834 0.301000 100 100 255
-0.019339 0.210772 0.035045 100 100 255
0.244901 0.179171 0.250410 100 100 255
0.124916 -0.194063 -0.027469 100 100 255
0.078821 -0.025581 -0.109390 100 100 255
-0.393421 0.051135 0.012211 100 100 255
-0.215970 0.288944 -0.256468 100 100 255
-0.059185 0.452423 0.253200 100 100 255
-0.122590 -0.471431 0.208276 100 100 255
-0.052948 0.251311 0.059292 100 100 255
0.129567 -0.476818 0.218315 100 100 255
-0.266626 -0.023695 -0.210865 100 100 255
0.094016 0.174237 -0.219987 100 100 255
0.168620 0.035438 0.188744 100 100 255
-0.016722 -0.236464 -0.012075 100 100 255
0.271142 0.004071 -0.110455 100 100 255
-0.140076 0.184858 0.419681 100 100 255
0.280654 0.351439 0.254921 100 100 255
-0.287938 -0.288724 0.152259 100 100 255
0.061200 0.149947 0.467338 100 100 255
0.146294 -0.059027 -0.225260 100 100 255
-0.133572 -0.129010 0.038060 100 100 255
-0.078712 -0.037147 -0.029758 100 100 255
-0.063498 -0.150282 0.084507 100 100 255
0.069093 -0.287103 0.129930 100 100 255
-0.012943 -0.411104 0.441438 100 100 255
-0.204394 0.263234 -0.398953 100 100 255
-0.314472 0.347868 0.325473 100 100 255
0.106185 0.162113 0.223037 100 100 255
0.345047 -0.367017 -0.113570 100 100 255
0.498678 0.151264 0.243560 100 100 255
0.202933 -0.549031 0.114209 100 100 255
0.069411 0.063813 0.398538 100 100 255
0.011837 0.146867 -0.152510 100 100 255
0.090312 0.259468 0.067429 100 100 255
0.367147 -0.335703 0.221535 100 100 255
0.045988 -0.172883 -0.214198 100 100 255
0.129432 0.090401 0.030055 100 100 255
-0.346415 0.244751 -0.030908 100 100 255
0.158805 0.339827 -0.083853 100 100 255
0.126650 0.254410 -0.081331 100 100 255
0.190699 -0.255304 0.127458 100 100 255
-0.432389 0.039766 0.030381 100 100 255
0.132184 0.187144 0.376445 100 100 255
0.124721 -0.033377 0.136221 100 100 255
-0.296389 0.047077 -0.090727 100 100 255
0.019504 0.200428 0.186386 100 100 255
0.151706 -0.003585 -0.124106 100 100 255
0.217272 0.004997 0.184751 100 100 255
-0.088455 -0.123026 0.014032 100 100 255
-0.096960 0.271343 0.536389 100 100 255
-0.118694 0.223146 0.299564 100 100 255
-0.375832 -0.036782 -0.196142 100 100 255
-0.141347 -0.095102 -0.157354 100 100 255
-0.081031 -0.201912 0.174061 100 100 255
0.275294 -0.097638 -0.004734 100 100 255
0.092653 -0.182622 0.400744 100 100 255
-0.254700 0.101829 -0.070214 100 100 255
-0.329207 -0.296870 -0.061698 100 100 255
0.122103 0.413137 0.139126 100 100 255
-0.268258 -0.280655 -0.040701 100 100 255
0.205139 -0.532602 0.092769 100 100 255
0.160068 -0.000341 -0.010049 100 100 255
-0.281510 -0.121863 -0.054137 100 100 255
-0.278101 0.270808 -0.207497 100 100 255
0.021759 -0.070005 0.216159 100 100 255
0.335592 0.193862 -0.074652 100 100 255
0.504462 -0.008239 0.425574 100 100 255
-0.363139 -0.576286 -0.000352 100 100 255
0.043599 0.060060 -0.127240 100 100 255
-0.253858 -0.312524 -0.036127 100 100 255
0.123376 -0.027018 0.206128 100 100 255
-0.237190 0.231255 -0.230543 100 100 255
-0.111411 -0.153167 0.225406 100 100 255
0.141239 -0.122945 0.371694 100 100 255
0.367994 0.110172 -0.257105 100 100 255
0.223282 -0.200201 -0.166142 100 100 255
-0.309581 0.215938 -0.007062 100 100 255
-0.001232 0.105303 -0.164236 100 100 255
0.357916 0.000621 -0.259481 100 100 255
0.144878 0.111911 0.260483 100 100 255
0.045311 0.174429 -0.304267 100 100 255
0.096583 0.312024 -0.178887 100 100 255
0.063808 0.349257 -0.091979 100 100 255
-0.454937 -0.200968 0.056371 100 100 255
0.195382 0.064988 -0.040599 100 100 255
0.145443 0.293079 -0.101396 100 100 255
-0.088011 -0.002508 -0.186626 100 100 255
0.026693 -0.008182 0.217973 100 100 255
0.431332 -0.215256 0.194706 100 100 255
0.120300 0.400928 0.099563 100 100 255
-0.010033 0.090292 0.193102 100 100 255
0.089522 -0.050798 0.222072 100 100 255
0.192097 0.042929 0.085016 100 100 255
-0.037893 -0.042055 -0.218907 100 100 255
0.021616 0.121731 -0.143781 100 100 255
0.233930 0.182263 -0.080460 100 100 255
0.132272 0.358859 0.031498 100 100 255
0.114146 -0.134344 0.251383 100 100 255
0.005974 0.385888 -0.287452 100 100 255
-0.260482 -0.158785 0.356190 100 100 255
0.038726 -0.068735 0.147601 100 100 255
-0.000520 -0.146311 0.139818 100 100 255
0.152704 -0.088681 0.008979 100 100 255
0.284087 -0.061542 0.050759 100 100 255
0.294044 0.056366 0.204995 100 100 255
0.477780 -0.168534 0.243991 100 100 255
-0.062851 0.010634 -0.085227 100 100 255
-0.287721 -0.218300 -0.248747 100 100 255
-0.121409 -0.174408 0.140521 100 100 255
-0.111096 -0.264053 -0.024794 100 100 255
0.139207 0.375618 0.446665 100 100 255
-0.553136 -0.043706 -0.114457 100 100 255
-0.145551 0.093788 -0.151428 100 100 255
0.190788 0.209831 -0.179177 100 100 255
-0.081118 0.163926 -0.105859 100 100 255
0.262085 -0.072633 -0.030182 100 100 255
-0.155256 -0.046105 -0.207354 100 100 255
0.341655 0.255179 -0.356105 100 100 255
0.076951 0.152234 -0.032994 100 100 255
0.059676 -0.100403 0.267206 100 100 255
0.444171 0.402322 -0.349786 100 100 255
0.161271 0.175746 0.105468 100 100 255
0.254806 0.009784 0.121052 100 100 255
0.017826 0.063328 -0.071927 100 100 255
-0.180216 -0.258220 -0.141829 100 100 255
0.073325 -0.104855 -0.090409 100 100 255
-0.233573 0.046588 -0.247480 100 100 255
0.088884 0.255059 -0.116429 100 100 255
-0.103728 -0.028440 0.126292 100 100 255
-0.012055 -0.058695 -0.035571 100 100 255
-0.209374 -0.044009 -0.310398 100 100 255
0.156457 0.076997 -0.274217 100 100 255
0.090177 0.274240 0.207093 100 100 255
0.223752 -0.029106 -0.253920 100 100 255
-0.097693 0.244286 -0.143511 100 100 255
-0.062490 -0.213926 0.284939 100 100 255
0.150413 0.011604 0.423495 100 100 255
0.127897 -0.004458 -0.025974 100 100 255
0.125695 -0.153300 0.820789 100 100 255
0.146064 0.028642 -0.179906 100 100 255
0.266303 0.283426 0.073112 100 100 255
-0.134568 -0.095189 -0.323044 100 100 255
0.458489 0.537278 0.037630 100 100 255
0.143602 0.128871 -0.030011 100 100 255
0.024220 -0.227685 -0.105784 100 100 255
-0.007896 -0.426471 -0.045782 100 100 255
-0.096639 -0.064862 0.311092 100 100 255
0.169029 -0.038554 -0.193040 100 100 255
0.104346 0.086609 0.330933 100 100 255
0.176147 0.224070 -0.149133 100 100 255
0.231680 0.353812 0.228437 100 100 255
-0.325882 0.112991 -0.139225 100 100 255
-0.306145 0.266599 0.297733 100 100 255
0.269160 0.236555 -0.189230 100 100 255
0.038526 0.000362 0.005146 100 100 255
-0.074932 -0.266984 -0.121367 100 100 255
-0.124413 -0.180051 -0.147114 100 100 255
0.571669 0.146664 0.055229 100 100 255
-0.135736 0.120400 0.103371 100 100 255
-0.161854 0.052793 0.148870 100 100 255
-0.021147 0.357284 -0.055544 100 100 255
-0.198313 0.405566 0.058484 100 100 255
-0.089185 0.257224 0.097880 100 100 255
0.316998 -0.163314 0.004965 100 100 255
0.215413 -0.106717 -0.109468 100 100 255
-0.105884 -0.109403 -0.022699 100 100 255
0.272069 -0.072466 0.244421 100 100 255
0.404120 0.472295 0.032069 100 100 255
-0.185324 0.122760 0.109622 100 100 255
-0.561145 0.155189 -0.170354 100 100 255
0.037743 0.050047 0.030188 100 100 255
0.025568 0.120553 0.212507 100 100 255
0.356954 -0.194410 -0.000815 100 100 255
0.195421 0.160635 -0.044077 100 100 255
-0.175671 -0.232540 0.166717 100 100 255
0.100001 0.218002 -0.040020 100 100 255
0.077892 -0.177919 -0.035121 100 100 255
-0.529148 -0.053683 0.062203 100 100 255
0.036451 -0.019761 0.309076 100 100 255
-0.145910 0.248442 0.070091 100 100 255
0.075114 0.091490 0.328676 100 100 255
0.157267 -0.250292 -0.045890 100 100 255
-0.037841 -0.031603 -0.134539 100 100 255
-0.013522 -0.045061 -0.080997 100 100 255
0.092504 0.159362 0.316698 100 100 255
0.519468 -0.256622 -0.074038 100 100 255
-0.054012 -0.025375 -0.266571 100 100 255
0.012463 -0.131976 0.221841 100 100 255
0.088697 0.024702 0.325769 100 100 255
0.525715 -0.116180 -0.060875 100 100 255
0.021372 -0.277728 0.231928 100 100 255
0.171625 -0.327767 -0.189070 100 100 255
-0.216543 0.052585 -0.037344 100 100 255
-0.279777 0.043603 0.028958 100 100 255
-0.389502 -0.000443 0.101881 100 100 255
0.058184 0.228130 -0.169104 100 100 255
-0.445027 -0.079423 0.101805 100 100 255
-0.210368 -0.022138 -0.396129 100 100 255
0.262295 -0.053965 0.147453 100 100 255
0.358855 -0.126518 -0.039920 100 100 255
0.050204 -0.140011 0.203902 100 100 255
0.049946 -0.248379 0.084606 100 100 255
0.208374 -0.054641 0.031632 100 100 255
0.527176 -0.383945 0.126475 100 100 255
0.160312 0.043965 0.008736 100 100 255
0.247800 0.230051 0.121943 100 100 255
0.032423 0.049013 0.059536 100 100 255
-0.221489 0.304481 -0.156795 100 100 255
0.066795 0.269388 0.051486 100 100 255
0.163960 0.013134 -0.447865 100 100 255
0.181728 -0.218038 -0.110383 100 100 255
-0.077106 -0.156251 -0.081663 100 100 255
-0.015892 0.001030 0.149919 100 100 255
0.300101 0.043934 0.460859 100 100 255
-0.032245 0.065117 0.057027 100 100 255
0.131317 -0.296119 -0.433117 100 100 255
-0.367204 -0.227867 -0.024090 100 100 255
0.039230 0.143008 0.151786 100 100 255
-0.066996 0.113625 0.238290 100 100 255
0.069968 -0.098273 -0.384575 100 100 255
-0.021820 0.187968 -0.004412 100 100 255
0.251139 -0.071180 0.136896 100 100 255
-0.032700 0.156375 0.153729 100 100 255
0.080770 -0.141534 0.233135 100 100 255
0.498938 0.218731 0.029019 100 100 255
0.093640 0.062069 0.381585 100 100 255
0.235335 0.217793 -0.212207 100 100 255
-0.379398 0.112167 -0.111642 100 100 255
0.135702 0.354778 -0.282414 100 100 255
0.349697 0.167181 0.098331 100 100 255
-0.134128 -0.194801 0.042421 100 100 255
0.073954 -0.132221 0.046610 100 100 255
-0.013070 -0.239906 0.097934 100 100 255
0.231239 -0.255145 -0.219959 100 100 255
0.006138 -0.265032 -0.266069 100 100 255
-0.365359 -0.148402 0.061891 100 100 255
-0.009762 -0.246571 0.058306 100 100 255
-0.360424 0.069298 0.161210 100 100 255
-0.028806 0.045669 -0.203399 100 100 255
0.365487 -0.191534 0.104772 100 100 255
-0.153511 0.413645 -0.261760 100 100 255
0.417477 0.103951 0.119058 100 100 255
-0.350132 0.026872 0.247915 100 100 255
-0.087826 0.146364 0.083449 100 100 255
-0.147704 -0.251368 -0.098198 100 100 255
-0.337179 0.064043 -0.234685 100 100 255
0.143915 -0.280993 -0.163478 100 100 255
-0.248826 0.048351 -0.205276 100 100 255
0.152530 -0.152153 0.026700 100 100 255
-0.081811 -0.003754 0.266684 100 100 255
0.493291 0.049420 -0.366893 100 100 255
-0.104379 0.177165 -0.137696 100 100 255
0.217264 0.114746 -0.326334 100 100 255
0.326160 0.235977 0.164092 100 100 255
0.300248 0.283968 0.074380 100 100 255
-0.050100 0.063705 0.156828 100 100 255
-0.028196 -0.148242 -0.433446 100 100 255
-0.086566 0.056513 0.035971 100 100 255
0.093637 -0.201060 0.044405 100 100 255
-0.113687 0.316384 -0.268257 100 100 255
0.387401 -0.146856 0.024329 100 100 255
-0.044950 -0.287192 -0.239299 100 100 255
0.081883 -0.112467 -0.190832 100 100 255
-0.259208 0.032962 -0.014043 100 100 255
0.040246 0.012018 0.092377 100 100 255
0.000659 -0.006990 0.096868 100 100 255
0.170589 0.522976 0.135179 100 100 255
-0.120383 -0.061048 0.157831 100 100 255
-0.178305 -0.169255 -0.487033 100 100 255
0.174594 0.115213 -0.160863 100 100 255
-0.218030 -0.165420 -0.068582 100 100 255
0.061268 0.332915 0.107280 100 100 255
0.263849 0.047478 0.138940 100 100 255
0.181171 -0.324279 -0.393250 100 100 255
-0.104279 -0.117322 0.258614 100 100 255
-0.276714 -0.143034 -0.209887 100 100 255
0.101583 -0.200492 0.218881 100 100 255
0.031755 0.242924 0.127543 100 100 255
-0.072446 0.152173 -0.293576 100 100 255
0.239042 0.048326 -0.171892 100 100 255
-0.298144 0.105929 0.214858 100 100 255
0.050316 0.030642 -0.128407 100 100 255
-0.079134 -0.319074 0.082577 100 100 255
0.277422 -0.063241 -0.045875 100 100 255
0.240339 -0.095902 -0.049338 100 100 255
-0.107279 0.491613 -0.087717 100 100 255
0.384249 0.099482 -0.226791 100 100 255
-0.124017 -0.420366 0.281809 100 100 255
-0.181415 0.117914 0.151326 100 100 255
0.469932 -0.402990 0.278401 100 100 255
0.457316 0.197938 0.033357 100 100 255
-0.264194 -0.052784 0.056587 100 100 255
-0.340703 -0.080854 0.298429 100 100 255
0.444307 0.235723 0.302016 100 100 255
-0.192792 -0.474980 -0.165976 100 100 255
0.043269 0.134493 -0.104077 100 100 255
0.350026 -0.134048 0.204777 100 100 255
-0.180917 -0.130971 -0.004098 100 100 255
0.164110 -0.003684 -0.028456 100 100 255
-0.009132 0.107211 0.397403 100 100 255
-0.039080 0.546827 0.254697 100 100 255
0.002769 0.042773 -0.085456 100 100 255
0.134540 0.107516 0.247371 100 100 255
0.039883 -0.118755 -0.211667 100 100 255
-0.605753 0.140817 0.224671 100 100 255
0.133826 0.072815 0.077658 100 100 255
0.282086 0.095379 -0.369897 100 100 255
-0.282505 -0.170047 0.214037 100 100 255
-0.295713 -0.101938 -0.011486 100 100 255
0.200746 -0.222625 0.015225 100 100 255
-0.026686 -0.442481 0.130861 100 100 255
0.225723 0.284654 -0.226332 100 100 255
0.024963 0.205619 -0.151448 100 100 255
-0.265976 0.242810 -0.085166 100 100 255
0.159222 -0.289084 -0.124603 100 100 255
0.095109 0.196064 0.212540 100 100 255
0.166496 -0.610167 0.139796 100 100 255
0.024416 -0.447246 -0.105011 100 100 255
-0.298151 0.022238 0.316098 100 100 255
0.068458 -0.126948 0.129391 100 100 255
0.046096 -0.139363 -0.378614 100 100 255
-0.080942 -0.533357 -0.176084 100 100 255
0.006705 -0.126619 0.308550 100 100 255
-0.090497 -0.033541 -0.151337 100 100 255
-0.123825 0.046896 -0.248485 100 100 255
-0.231148 0.308211 -0.169693 100 100 255
-0.390567 0.197597 -0.412431 100 100 255
-0.143141 0.124616 -0.445510 100 100 255
-0.168336 -0.006881 -0.220637 100 100 255
0.110533 0.319210 0.097784 100 100 255
-0.238859 0.184929 -0.222836 100 100 255
-0.373058 -0.052942 0.159051 100 100 255
0.356280 -0.446036 0.137631 100 100 255
0.031839 -0.169787 -0.347588 100 100 255
-0.069919 -0.163575 0.153560 100 100 255
-0.049040 0.157394 -0.150874 100 100 255
0.127204 0.364475 -0.012697 100 100 255
-0.379098 -0.301310 -0.051801 100 100 255
0.211072 -0.218860 0.010074 100 100 255
0.306367 0.175526 0.006479 100 100 255
-0.002253 0.094856 0.337636 100 100 255
-0.143331 0.129679 -0.104858 100 100 255
-0.111856 0.079982 -0.023461 100 100 255
-0.276378 -0.077123 0.152238 100 100 255
0.228597 0.011647 -0.009005 100 100 255
-0.250994 0.105766 -0.519343 100 100 255
0.036379 -0.103427 0.115730 100 100 255
0.236597 -0.006249 0.151488 100 100 255
-0.287372 -0.052236 -0.302749 100 100 255
0.210537 0.092054 0.053550 100 100 255
-0.118613 0.320488 -0.023355 100 100 255
0.008445 -0.010438 0.289882 100 100 255
0.113434 0.248373 0.274282 100 100 255
0.262716 -0.142711 -0.282308 100 100 255
0.441190 0.215006 -0.087149 100 100 255
0.105834 0.183467 -0.235566 100 100 255
0.291452 0.225826 0.341768 100 100 255
-0.562576 -0.109081 0.250131 100 100 255
0.094211 0.003800 -0.461262 100 100 255
-0.134223 -0.244134 -0.104095 100 100 255
-0.149585 0.110071 -0.020047 100 100 255
0.148691 0.038499 0.130571 100 100 255
0.299840 0.402377 -0.458524 100 100 255
-0.160080 0.228407 -0.027505 100 100 255
-0.004529 0.216925 -0.295716 100 100 255
-0.060091 0.202523 0.172740 100 100 255
-0.010677 0.303508 -0.356243 100 100 255
0.085763 0.124269 -0.049180 100 100 255
-0.107898 -0.195271 -0.312852 100 100 255
-0.245835 -0.249305 0.141401 100 100 255
-0.272237 0.160229 -0.172710 100 100 255
0.007881 0.137944 0.204090 100 100 255
0.294826 0.057925 -0.036804 100 100 255
-0.245460 -0.163964 -0.155211 100 100 255
0.023585 -0.502190 0.173146 100 100 255
0.134303 -0.157855 -0.243669 100 100 255
0.101787 0.159915 0.508170 100 100 255
0.144566 -0.039571 0.304626 100 100 255
-0.010572 -0.141721 -0.032114 100 100 255
-0.126613 -0.286997 -0.107045 100 100 255
0.042509 -0.104146 -0.142468 100 100 255
-0.080967 -0.278248 -0.067025 100 100 255
0.090039 0.107147 0.125156 100 100 255
-0.398736 -0.341578 0.258761 100 100 255
-0.030669 -0.034375 -0.158150 100 100 255
0.183733 -0.183945 0.043433 100 100 255
0.251457 -0.025757 0.185016 100 100 255
0.117478 0.534743 -0.088407 100 100 255
-0.300091 0.460644 -0.029598 100 100 255
0.262969 -0.380162 0.085981 100 100 255
0.063257 -0.190866 -0.225909 100 100 255
-0.471920 0.100984 0.207050 100 100 255
0.220541 0.412230 0.006239 100 100 255
0.247013 0.436841 0.261309 100 100 255
0.169019 0.380133 0.183386 100 100 255
-0.206134 0.222487 -0.289397 100 100 255
0.099672 0.004571 0.005315 100 100 255
0.038200 -0.443648 0.189122 100 100 255
-0.248066 0.337769 -0.194099 100 100 255
0.338809 -0.170578 -0.113063 100 100 255
-0.109988 -0.018351 -0.047538 100 100 255
0.133451 0.050808 -0.263483 100 100 255
-0.038792 -0.023453 0.186564 100 100 255
0.112041 0.108022 -0.255017 100 100 255
0.301985 -0.419281 0.040866 100 100 255
0.342749 -0.167468 -0.218152 100 100 255
0.215500 0.065998 -0.524657 100 100 255
0.023875 -0.564469 0.290067 100 100 255
0.108631 0.103378 -0.169302 100 100 255
0.122336 0.163677 -0.321145 100 100 255
0.251513 -0.055521 0.270632 100 100 255
-0.345774 0.474923 0.055973 100 100 255
0.101094 0.063501 0.114289 100 100 255
-0.313686 -0.307594 -0.197537 100 100 255
-0.103953 -0.440230 -0.188022 100 100 255
-0.060774 -0.276760 -0.008686 100 100 255
0.273312 -0.123301 -0.326394 100 100 255
0.247924 -0.398235 -0.159653 100 100 255
0.011276 0.063228 0.140715 100 100 255
-0.088367 -0.032481 -0.070482 100 100 255
0.127670 0.033433 -0.234756 100 100 255
-0.064120 0.021017 -0.119713 100 100 255
0.082862 0.252707 -0.007698 100 100 255
-0.162744 0.283575 -0.003277 100 100 255
-0.164234 0.363887 0.278935 100 100 255
0.094839 -0.340263 -0.065385 100 100 255
0.237344 0.172318 -0.079149 100 100 255
0.376519 -0.125374 -0.223647 100 100 255
0.362078 -0.056333 -0.292600 100 100 255
-0.038150 0.047927 -0.062498 100 100 255
-0.067655 0.073961 0.340113 100 100 255
0.133457 0.337055 -0.168840 100 100 255
-0.143015 0.232585 -0.418846 100 100 255
-0.108073 -0.027563 0.338301 100 100 255
-0.384457 0.093294 0.158530 100 100 255
0.124487 -0.015842 0.209332 100 100 255
0.129935 -0.204198 -0.000083 100 100 255
0.045200 -0.150363 -0.125114 100 100 255
0.375080 0.190474 -0.080448 100 100 255
-0.067684 -0.411257 0.016636 100 100 255
0.237517 -0.301897 -0.019231 100 100 255
0.081222 -0.075350 0.122371 100 100 255
-0.008075 -0.083317 -0.098438 100 100 255
-0.394813 0.280420 -0.077921 100 100 255
-0.008398 -0.067444 0.088856 100 100 255
-0.050476 0.034151 0.100746 100 100 255
0.068728 0.201996 -0.207227 100 100 255
-0.465610 0.227212 -0.207434 100 100 255
0.035108 0.077432 0.188954 100 100 255
-0.006341 -0.218429 0.061310 100 100 255
0.109880 0.088618 -0.051888 100 100 255
-0.219908 -0.194458 -0.083304 100 100 255
-0.393250 -0.204286 0.399768 100 100 255
0.177985 0.062246 0.133680 100 100 255
0.043617 0.159407 -0.040769 100 100 255
0.362065 -0.167433 0.324008 100 100 255
0.213916 -0.268750 -0.235228 100 100 255
0.129070 0.220455 -0.038430 100 100 255
-0.096853 -0.013100 -0.106849 100 100 255
0.160042 -0.036011 0.005232 100 100 255
0.002715 -0.224215 0.347365 100 100 255
0.663391 0.081839 0.063891 100 100 255
0.132805 -0.020168 0.047390 100 100 255
0.015965 0.058197 -0.157174 100 100 255
-0.078243 -0.139176 0.126174 100 100 255
0.472052 -0.146779 -0.066193 100 100 255
0.081386 -0.062929 -0.247110 100 100 255
-0.043171 0.096788 -0.233834 100 100 255
-0.278360 -0.096584 -0.148112 100 100 255
0.204564 -0.233448 -0.229738 100 100 255
0.362007 -0.057143 0.213334 100 100 255
0.097923 0.172989 0.046539 100 100 255
-0.025113 0.044552 0.253130 100 100 255
-0.126053 -0.399750 0.040329 100 100 255
0.441092 0.069751 -0.629167 100 100 255
-0.002346 0.008611 -0.033717 100 100 255
0.083855 0.294785 -0.059532 100 100 255
-0.152814 -0.229847 0.419546 100 100 255
0.125598 -0.299229 0.274672 100 100 255
0.275771 -0.192107 0.101531 100 100 255
-0.141085 0.019557 -0.316751 100 100 255
-0.038697 -0.121071 0.210905 100 100 255
0.207104 -0.132994 -0.259185 100 100 255
0.136256 -0.187061 -0.135345 100 100 255
0.424628 -0.183155 0.223749 100 100 255
0.412800 -0.225152 0.062323 100 100 255
-0.104907 -0.087459 0.231259 100 100 255
0.114910 -0.274686 -0.100351 100 100 255
0.174131 -0.113406 0.189032 100 100 255
0.587360 0.044225 -0.285552 100 100 255
-0.090463 -0.106266 -0.178535 100 100 255
-0.106437 -0.269595 -0.097454 100 100 255
0.118478 0.146964 -0.190949 100 100 255
0.251006 -0.031256 -0.398094 100 100 255
-0.239769 -0.063698 0.239624 100 100 255
0.202753 -0.198275 0.136082 100 100 255
-0.033727 0.159041 -0.186346 100 100 255
0.150987 -0.394940 0.046729 100 100 255
0.018115 -0.072532 -0.201839 100 100 255
0.028356 0.465797 -0.322216 100 100 255
0.457707 0.011812 -0.055974 100 100 255
-0.204044 -0.130593 -0.207249 100 100 255
0.130362 0.267774 -0.230152 100 100 255
0.165842 0.020213 -0.104022 100 100 255
0.115430 -0.053863 -0.174342 100 100 255
-0.038665 -0.124838 0.431725 100 100 255
-0.039836 -0.061897 -0.210074 100 100 255
0.060729 -0.126334 0.017712 100 100 255
-0.087820 0.254279 -0.004129 100 100 255
0.111205 0.188431 -0.174300 100 100 255
0.275945 -0.132776 -0.152462 100 100 255
0.146581 -0.456335 0.002824 100 100 255
-0.296589 0.209008 -0.355482 100 100 255
-0.397619 -0.362884 0.003143 100 100 255
0.143626 -0.367468 0.028344 100 100 255
-0.154558 -0.149016 0.237418 100 100 255
0.081754 -0.200183 0.359891 100 100 255
0.066466 -0.058078 -0.187393 100 100 255
0.041770 -0.096962 0.273483 100 100 255
-0.139662 -0.210743 0.217974 100 100 255
-0.124339 -0.174714 -0.272092 100 100 255
-0.312666 -0.018348 -0.210688 100 100 255
-0.276875 -0.130016 -0.077791 100 100 255
0.014717 0.133386 -0.177833 100 100 255
-0.187759 0.038392 0.217043 100 100 255
-0.116205 0.111455 0.057213 100 100 255
0.234987 -0.197227 0.509464 100 100 255
0.045978 -0.188666 0.248973 100 100 255
-0.221873 -0.204887 -0.066306 100 100 255
-0.230336 -0.039351 0.243441 100 100 255
0.171568 0.138987 -0.235896 100 100 255
0.040595 -0.024283 0.110692 100 100 255
0.043155 0.057284 -0.202469 100 100 255
0.037879 0.034390 -0.063615 100 100 255
-0.166100 0.122443 -0.122473 100 100 255
-0.169358 -0.478769 -0.068723 100 100 255
-0.211366 0.141431 0.065352 100 100 255
-0.000658 -0.088868 0.137790 100 100 255
0.037871 0.056105 0.166923 100 100 255
-0.028610 -0.234648 -0.021767 100 100 255
-0.175132 -0.219891 -0.144860 100 100 255
-0.577800 -0.342357 -0.119493 100 100 255
0.035289 0.052390 -0.005710 100 100 255
-0.400933 0.086836 0.322747 100 100 255
-0.097382 -0.218441 -0.500955 100 100 255
0.110383 0.031121 0.094154 100 100 255
-0.015016 0.173024 0.395369 100 100 255
-0.065850 0.213498 -0.118512 100 100 255
0.113750 0.039705 0.060258 100 100 255
-0.363734 0.292881 0.006770 100 100 255
0.044199 0.046567 0.174628 100 100 255
0.003293 0.340903 -0.142747 100 100 255
-0.070394 0.038065 0.038969 100 100 255
-0.118406 0.216882 -0.220348 100 100 255
0.177448 0.614490 0.137921 100 100 255
0.066983 -0.246494 -0.107643 100 100 255
0.091816 0.164238 -0.040617 100 100 255
-0.134040 0.175499 0.200607 100 100 255
-0.333233 -0.080173 0.091881 100 100 255
-0.278601 -0.072005 0.212674 100 100 255
-0.309921 0.080594 -0.153675 100 100 255
0.093254 -0.233927 -0.157409 100 100 255
-0.053738 -0.305098 0.247367 100 100 255
-0.284765 -0.176176 0.075981 100 100 255
0.202942 0.007195 0.115103 100 100 255
-0.198787 -0.222829 0.198523 100 100 255
0.075575 0.262621 -0.219562 100 100 255
-0.031474 -0.058932 0.026207 100 100 255
-0.040520 0.259649 0.356662 100 100 255
-0.011606 0.172490 0.065822 100 100 255
0.018686 -0.109614 -0.023255 100 100 255
0.406212 -0.252456 0.019111 100 100 255
0.031049 -0.107437 -0.112558 100 100 255
-0.129433 -0.428043 -0.184212 100 100 255
-0.242768 0.064555 0.027732 100 100 255
0.018492 0.033974 0.211845 100 100 255
0.083639 -0.355096 0.366195 100 100 255
-0.019325 0.029058 0.333326 100 100 255
0.406326 -0.127116 0.009720 100 100 255
0.165966 -0.107171 0.055646 100 100 255
-0.021201 -0.235222 -0.182848 100 100 255
-0.140719 -0.085343 0.397357 100 100 255
-0.104328 0.000831 -0.053455 100 100 255
0.326959 -0.367511 0.091504 100 100 255
-0.179246 -0.248309 -0.141880 100 100 255
-0.187849 0.066834 0.261403 100 100 255
0.149590 0.077159 -0.045068 100 100 255
-0.189894 -0.007725 0.060087 100 100 255
0.307977 -0.083439 0.344440 100 100 255
0.179271 0.204946 -0.084140 100 100 255
-0.222814 -0.313872 0.216193 100 100 255
0.106813 -0.186573 0.256071 100 100 255
-0.416901 0.065841 -0.244203 100 100 255
0.177485 -0.148296 -0.002645 100 100 255
0.013803 0.043241 0.008377 100 100 255
0.188825 -0.035726 -0.291050 100 100 255
0.036311 -0.507440 0.242617 100 100 255
0.333400 -0.156551 -0.022714 100 100 255
-0.221470 0.038004 -0.282299 100 100 255
0.212034 -0.438018 0.002127 100 100 255
-0.639453 0.045590 0.128569 100 100 255
-0.285704 -0.223974 -0.298863 100 100 255
-0.096469 0.162724 0.183149 100 100 255
-0.186766 -0.375788 -0.292741 100 100 255
0.245093 -0.019549 -0.177773 100 100 255
0.324029 0.067171 0.056175 100 100 255
-0.031240 0.091466 0.135309 100 100 255
-0.212772 -0.398587 0.092974 100 100 255
-0.038198 0.127662 0.139070 100 100 255
-0.187490 0.009322 -0.069524 100 100 255
-0.021450 0.078471 0.262808 100 100 255
0.019105 -0.524700 0.010613 100 100 255
-0.128594 0.377490 0.181843 100 100 255
-0.016850 0.264965 0.364948 100 100 255
0.051900 0.326782 0.119339 100 100 255
-0.274595 -0.099349 0.027481 100 100 255
0.127587 -0.055674 -0.072813 100 100 255
0.284189 0.386390 -0.178619 100 100 255
-0.152035 -0.097544 -0.013149 100 100 255
-0.026720 0.307536 0.323335 100 100 255
-0.204151 0.097402 0.201183 100 100 255
-0.103648 -0.110265 -0.007880 100 100 255
0.064372 -0.215684 0.096488 100 100 255
-0.069754 -0.397942 0.203474 100 100 255
-0.044005 0.139212 0.114667 100 100 255
-0.022689 0.039220 0.127528 100 100 255
-0.082102 -0.132634 -0.051803 100 100 255
0.280524 -0.313077 0.198204 100 100 255
