ply
format ascii 1.0
element vertex 1181
property float x
property float y
property float z
property uchar red
property uchar green
property uchar blue
end_header
-0.081399 -0.105855 0.167846 100 100 255
-0.070792 -0.196940 0.106267 100 100 255
0.130608 0.211872 0.257787 100 100 255
0.182339 -0.123435 0.376439 100 100 255
-0.436591 0.139325 0.204479 100 100 255
-0.163937 -0.158927 0.056383 100 100 255
0.163191 0.418706 0.245739 100 100 255
-0.303347 -0.306493 0.023800 100 100 255
0.050006 0.142640 0.091585 100 100 255
-0.115684 -0.080236 0.006403 100 100 255
-0.179412 0.232464 -0.103441 100 100 255
-0.255964 -0.106411 -0.512844 100 100 255
-0.121648 0.323302 0.117478 100 100 255
0.014964 0.001860 0.155190 100 100 255
-0.140995 -0.072001 -0.062007 100 100 255
0.121563 0.104897 -0.326996 100 100 255
-0.074707 0.016524 0.015629 100 100 255
-0.027123 0.165701 -0.236479 100 100 255
-0.187129 -0.137900 -0.280438 100 100 255
-0.091254 0.068538 -0.409059 100 100 255
0.301623 -0.098082 0.030886 100 100 255
-0.129337 -0.107363 0.237998 100 100 255
0.156027 -0.237874 -0.318907 100 100 255
-0.126736 -0.148837 0.244512 100 100 255
0.049976 -0.084282 0.047204 100 100 255
0.189157 0.043152 0.427905 100 100 255
0.006563 -0.022256 -0.062975 100 100 255
-0.141173 0.298195 0.173835 100 100 255
-0.167434 -0.197336 -0.313586 100 100 255
-0.091060 0.030898 0.100159 100 100 255
-0.253132 -0.253902 0.207930 100 100 255
-0.208247 -0.161282 0.222124 100 100 255
-0.024614 -0.209902 -0.006647 100 100 255
0.016231 0.270488 -0.229280 100 100 255
-0.148120 0.070070 -0.098266 100 100 255
0.040739 0.055102 -0.334532 100 100 255
-0.041815 0.417141 0.057813 100 100 255
-0.258047 -0.038393 -0.047854 100 100 255
-0.216197 0.082413 0.102457 100 100 255
0.146501 0.050762 0.042267 100 100 255
0.074737 -0.102366 0.319194 100 100 255
0.153118 0.107259 -0.418247 100 100 255
-0.308200 -0.246149 0.029283 100 100 255
0.204117 -0.199339 0.001884 100 100 255
-0.149873 -0.289244 -0.349773 100 100 255
-0.020958 -0.192376 -0.039600 100 100 255
0.046479 -0.020767 0.085249 100 100 255
-0.039234 0.109775 0.115560 100 100 255
-0.040888 -0.035396 -0.022995 100 100 255
0.266457 -0.356754 -0.249416 100 100 255
0.003289 0.121963 -0.007378 100 100 255
0.294393 0.266490 0.117390 100 100 255
-0.187713 0.294801 -0.337133 100 100 255
-0.141886 -0.047663 -0.158868 100 100 255
0.238156 -0.089828 0.061488 100 100 255
-0.122031 -0.137765 -0.175435 100 100 255
-0.191731 -0.301071 0.410899 100 100 255
0.214141 -0.219122 -0.385965 100 100 255
-0.010478 0.093923 0.459684 100 100 255
-0.056052 -0.175406 0.105263 100 100 255
0.076298 -0.114424 0.052417 100 100 255
-0.111787 0.278407 0.284775 100 100 255
0.070320 -0.191114 -0.207942 100 100 255
-0.138996 0.127083 0.296856 100 100 255
-0.190692 -0.188467 0.056943 100 100 255
0.077929 -0.169826 0.302138 100 100 255
0.390928 0.005713 0.539001 100 100 255
-0.007387 -0.080413 -0.031496 100 100 255
0.051539 0.099560 -0.071272 100 100 255
0.021391 0.218605 -0.275070 100 100 255
-0.050222 0.141584 0.258647 100 100 255
-0.345524 -0.235195 0.191310 100 100 255
-0.096346 0.124139 0.050793 100 100 255
0.170810 0.143719 0.283093 100 100 255
-0.041655 0.048432 0.039837 100 100 255
0.099405 0.196898 0.037912 100 100 255
-0.276016 0.040868 0.268523 100 100 255
0.008670 -0.155919 -0.215068 100 100 255
0.129092 -0.229009 0.099932 100 100 255
0.191470 -0.355892 0.145986 100 100 255
-0.229693 -0.006187 -0.179078 100 100 255
-0.143445 0.262015 0.070445 100 100 255
0.366721 0.132239 -0.168959 100 100 255
0.072871 -0.068571 -0.034159 100 100 255
-0.063500 0.085277 -0.484256 100 100 255
-0.187031 -0.160062 0.114731 100 100 255
-0.115238 0.262456 0.254426 100 100 255
-0.061261 0.040385 -0.232917 100 100 255
-0.085803 -0.150016 0.050831 100 100 255
0.260002 -0.392818 0.015884 100 100 255
0.036045 -0.261888 0.062823 100 100 255
-0.065190 0.238420 -0.087363 100 100 255
-0.200316 -0.119720 0.346591 100 100 255
0.051183 -0.268000 0.259595 100 100 255
0.434162 -0.158556 0.039642 100 100 255
0.107270 0.443154 -0.060318 100 100 255
0.173278 -0.503042 -0.307452 100 100 255
-0.024525 -0.261093 0.037200 100 100 255
-0.003144 -0.344869 0.256916 100 100 255
0.042357 -0.216716 -0.039736 100 100 255
0.179581 0.046503 -0.415382 100 100 255
-0.074201 -0.061484 0.105588 100 100 255
-0.058540 0.042735 -0.218861 100 100 255
-0.171111 0.084541 -0.243710 100 100 255
-0.426223 0.054570 -0.087642 100 100 255
0.047377 -0.031080 0.075075 100 100 255
-0.310155 -0.235842 0.062391 100 100 255
0.334647 -0.174917 0.135353 100 100 255
0.138855 -0.123991 0.022102 100 100 255
0.139760 0.027190 -0.142516 100 100 255
0.043901 -0.192698 -0.049370 100 100 255
-0.169046 -0.031817 -0.197153 100 100 255
0.027946 0.043246 0.004576 100 100 255
-0.010794 -0.076037 0.245874 100 100 255
0.221423 -0.248311 -0.167351 100 100 255
0.103707 0.007998 -0.176568 100 100 255
-0.110197 0.218029 0.098245 100 100 255
0.168129 -0.143966 0.403433 100 100 255
0.162971 0.155390 -0.033067 100 100 255
-0.123503 -0.158385 0.185485 100 100 255
0.321658 0.113632 -0.176856 100 100 255
-0.139981 0.008948 -0.074143 100 100 255
0.273330 0.179220 -0.110717 100 100 255
0.037125 -0.038451 -0.216864 100 100 255
0.030053 0.350299 0.065360 100 100 255
0.054536 0.246474 0.216309 100 100 255
0.309073 0.372632 0.050794 100 100 255
0.332999 -0.238100 -0.101401 100 100 255
0.214804 0.058022 0.366168 100 100 255
-0.103833 -0.258571 0.062663 100 100 255
-0.254863 0.137328 0.143804 100 100 255
-0.231777 -0.283018 -0.464029 100 100 255
0.146838 -0.110958 -0.096180 100 100 255
-0.100304 0.204235 -0.072056 100 100 255
0.215396 0.131945 0.143352 100 100 255
0.167841 0.028438 -0.142359 100 100 255
-0.286055 0.390348 -0.052531 100 100 255
0.093347 0.012101 -0.341085 100 100 255
-0.134702 0.042969 0.012298 100 100 255
-0.123269 -0.058519 -0.233741 100 100 255
0.138033 -0.048606 0.105369 100 100 255
-0.180231 -0.376995 0.036571 100 100 255
0.223641 -0.384697 0.194373 100 100 255
0.019005 -0.067521 0.000370 100 100 255
0.363454 -0.275555 0.233059 100 100 255
0.220205 0.246852 0.012866 100 100 255
-0.041306 -0.050169 -0.347124 100 100 255
-0.006911 -0.081186 -0.050862 100 100 255
0.599459 -0.130409 0.156166 100 100 255
-0.214158 -0.040806 -0.210363 100 100 255
-0.110540 0.098096 -0.018418 100 100 255
0.058904 -0.188376 0.150663 100 100 255
-0.200877 0.078154 0.298552 100 100 255
0.021277 -0.200745 0.050716 100 100 255
0.005302 -0.080088 0.426779 100 100 255
-0.041131 0.399541 -0.123715 100 100 255
-0.145825 0.249386 0.136384 100 100 255
-0.249786 -0.029663 0.225184 100 100 255
-0.081767 0.004194 0.088103 100 100 255
-0.071956 -0.297183 -0.123481 100 100 255
-0.212714 0.210353 0.137828 100 100 255
0.209135 -0.095929 -0.144457 100 100 255
0.080466 -0.070778 0.273635 100 100 255
-0.043943 -0.382323 -0.000563 100 100 255
0.090944 0.510250 -0.101960 100 100 255
0.114492 0.038477 -0.112458 100 100 255
0.320605 -0.094426 -0.121952 100 100 255
0.141872 -0.056600 0.354122 100 100 255
0.225006 0.020024 -0.015710 100 100 255
0.174634 -0.310383 -0.388840 100 100 255
0.064447 0.345626 0.010201 100 100 255
0.113866 0.180906 0.343136 100 100 255
-0.140036 0.057648 0.108611 100 100 255
0.012358 -0.126857 -0.152232 100 100 255
0.368334 0.068542 0.150173 100 100 255
0.136425 -0.254210 -0.203114 100 100 255
0.298757 -0.107568 -0.025809 100 100 255
0.260127 0.046784 0.225364 100 100 255
0.141897 -0.321390 0.080882 100 100 255
-0.176598 0.125681 -0.001428 100 100 255
-0.086796 0.071833 -0.335541 100 100 255
-0.099919 -0.019139 0.254851 100 100 255
0.238848 -0.006415 0.115920 100 100 255
-0.043563 -0.205770 -0.276076 100 100 255
0.274166 -0.065219 0.148115 100 100 255
-0.141993 0.122476 0.028629 100 100 255
0.283152 -0.034615 0.040588 100 100 255
-0.076225 0.027725 -0.045917 100 100 255
-0.159022 0.243062 -0.041207 100 100 255
0.115194 -0.460155 0.025191 100 100 255
0.328974 0.215308 -0.115551 100 100 255
-0.034249 -0.111156 0.037686 100 100 255
-0.187020 -0.073367 0.299060 100 100 255
-0.031141 0.181096 -0.039226 100 100 255
0.134401 -0.054216 0.134869 100 100 255
0.062476 -0.173003 -0.104858 100 100 255
0.248022 -0.478241 -0.299307 100 100 255
-0.102434 0.104304 0.471008 100 100 255
-0.139025 0.527000 0.401828 100 100 255
0.093832 0.070190 -0.356372 100 100 255
0.200511 0.142331 -0.197801 100 100 255
-0.067931 -0.022738 -0.082561 100 100 255
-0.070545 0.144676 0.038405 100 100 255
0.175916 -0.272560 0.060685 100 100 255
0.274527 -0.040444 -0.185070 100 100 255
0.149533 -0.060450 -0.208620 100 100 255
0.016603 -0.163238 0.069507 100 100 255
-0.441203 -0.038450 0.128653 100 100 255
-0.089479 0.180706 0.103657 100 100 255
0.178063 -0.118853 0.039638 100 100 255
0.330609 0.007980 0.319502 100 100 255
0.235691 -0.185101 -0.109757 100 100 255
0.017461 -0.181864 0.061170 100 100 255
0.033326 -0.213199 0.071218 100 100 255
0.138834 -0.013501 -0.045796 100 100 255
0.398467 0.108785 -0.537925 100 100 255
-0.106109 0.007261 0.210768 100 100 255
0.029322 0.341879 0.216955 100 100 255
0.169349 0.146498 0.011660 100 100 255
0.268878 0.270365 -0.039250 100 100 255
-0.342550 -0.021046 0.055449 100 100 255
0.058406 -0.231129 -0.075609 100 100 255
0.055137 0.140644 -0.427687 100 100 255
0.198314 -0.180479 0.193554 100 100 255
0.023441 0.170098 -0.046654 100 100 255
0.091945 -0.344505 -0.155953 100 100 255
0.255154 -0.220930 -0.049800 100 100 255
-0.162954 0.219048 0.241183 100 100 255
-0.046507 -0.060740 -0.325031 100 100 255
0.104329 -0.051106 -0.027097 100 100 255
0.093556 -0.163818 0.101877 100 100 255
-0.407060 0.023105 0.123846 100 100 255
0.490077 -0.077684 0.129505 100 100 255
0.331327 -0.208050 0.063276 100 100 255
-0.494928 -0.040619 -0.203737 100 100 255
0.209478 0.050595 0.095607 100 100 255
-0.132913 -0.477123 0.174762 100 100 255
-0.094957 -0.292522 0.227041 100 100 255
-0.250228 0.048878 -0.010361 100 100 255
0.027964 -0.141121 -0.162692 100 100 255
0.200928 0.107065 0.228350 100 100 255
-0.229695 0.017119 -0.209507 100 100 255
-0.061231 -0.012065 -0.029616 100 100 255
0.120562 0.151752 -0.281129 100 100 255
0.165341 0.082446 -0.041807 100 100 255
-0.340472 -0.014304 -0.012560 100 100 255
-0.553711 0.315554 -0.076469 100 100 255
-0.085636 -0.277801 -0.123704 100 100 255
0.043956 -0.448546 -0.043671 100 100 255
-0.152016 -0.160056 0.301084 100 100 255
-0.177835 0.116892 -0.344657 100 100 255
-0.007859 -0.086105 -0.021208 100 100 255
0.022315 0.310343 -0.300549 100 100 255
0.275237 0.157105 0.120140 100 100 255
-0.194296 -0.124825 -0.381959 100 100 255
-0.415374 -0.064834 -0.128960 100 100 255
0.013960 0.172778 0.004411 100 100 255
0.042952 0.166470 0.007435 100 100 255
0.144808 -0.025758 -0.019212 100 100 255
0.249693 0.020074 -0.065153 100 100 255
-0.125245 0.101778 0.407089 100 100 255
-0.522358 -0.290078 -0.093683 100 100 255
0.263006 -0.100050 0.063232 100 100 255
-0.363472 -0.382824 0.257225 100 100 255
0.170188 0.135595 0.408148 100 100 255
0.073588 -0.050346 0.004010 100 100 255
0.418397 -0.192727 -0.393147 100 100 255
0.237226 -0.024607 0.168792 100 100 255
0.415490 -0.011176 -0.261291 100 100 255
-0.115433 -0.248056 0.277036 100 100 255
0.009314 -0.013564 0.366556 100 100 255
-0.162660 0.004002 0.073496 100 100 255
0.061307 0.165074 -0.076058 100 100 255
-0.068215 -0.020665 -0.259531 100 100 255
0.080260 0.291956 0.058675 100 100 255
-0.206474 -0.195015 -0.373199 100 100 255
-0.218038 0.050020 0.325470 100 100 255
-0.059881 -0.016200 -0.084910 100 100 255
0.021210 -0.314904 -0.077150 100 100 255
0.160831 0.131506 0.135422 100 100 255
0.113721 0.178550 -0.029035 100 100 255
0.095604 0.220258 -0.076365 100 100 255
0.050866 0.387283 0.110695 100 100 255
0.063912 0.064401 0.055102 100 100 255
-0.196730 0.270819 0.243057 100 100 255
-0.098671 0.083929 -0.121173 100 100 255
-0.068401 0.428986 0.159818 100 100 255
-0.003435 0.159059 0.047381 100 100 255
-0.009928 -0.043341 -0.141925 100 100 255
0.093525 0.091215 0.355568 100 100 255
-0.007880 -0.194787 -0.250509 100 100 255
-0.205108 0.141035 -0.124642 100 100 255
-0.074510 -0.071514 0.197495 100 100 255
-0.174074 0.120938 -0.048029 100 100 255
0.161311 0.360864 -0.067489 100 100 255
0.212868 0.146208 -0.051656 100 100 255
0.428620 -0.031743 0.513989 100 100 255
0.459881 0.339611 -0.176018 100 100 255
-0.024974 -0.148803 0.502770 100 100 255
0.033457 -0.100521 0.289114 100 100 255
0.497959 0.323421 0.040030 100 100 255
-0.001998 0.363772 -0.024703 100 100 255
-0.061678 -0.315225 0.279072 100 100 255
0.226592 -0.422301 0.214130 100 100 255
0.125769 0.284565 -0.310197 100 100 255
-0.093925 0.422917 0.063336 100 100 255
-0.463054 -0.363773 -0.362591 100 100 255
-0.025671 -0.056059 -0.258215 100 100 255
-0.274282 0.021620 0.160655 100 100 255
-0.110158 0.441199 0.145324 100 100 255
0.181991 -0.395637 -0.039259 100 100 255
0.622349 -0.009114 0.263204 100 100 255
0.096964 0.004817 -0.124245 100 100 255
-0.030938 0.118676 -0.119589 100 100 255
-0.282409 -0.005212 -0.117129 100 100 255
0.142718 0.241415 0.278054 100 100 255
0.282771 -0.014951 -0.037419 100 100 255
0.010586 0.310578 0.068617 100 100 255
-0.166956 -0.296529 0.296462 100 100 255
-0.650517 -0.265794 0.036906 100 100 255
-0.139057 0.104112 0.036102 100 100 255
0.057418 0.233709 -0.070713 100 100 255
-0.086809 -0.142877 0.300082 100 100 255
-0.094070 -0.414664 -0.113270 100 100 255
0.130133 -0.240797 0.147795 100 100 255
0.223234 0.001767 -0.142600 100 100 255
0.085177 0.066211 -0.201210 100 100 255
0.039270 0.035893 0.041187 100 100 255
0.099977 -0.232740 0.190090 100 100 255
0.017615 -0.099770 0.139777 100 100 255
-0.011935 -0.379095 -0.181529 100 100 255
0.134947 -0.086257 -0.411127 100 100 255
0.055446 0.189639 -0.267853 100 100 255
0.199957 0.204397 0.030285 100 100 255
-0.268496 -0.124630 0.089987 100 100 255
-0.040110 0.465497 0.205877 100 100 255
0.011158 0.154362 -0.277685 100 100 255
0.039149 0.034486 -0.237381 100 100 255
-0.052287 0.039007 -0.072515 100 100 255
0.085236 0.120007 -0.154426 100 100 255
-0.139995 -0.110293 -0.171344 100 100 255
-0.224204 0.052512 0.060682 100 100 255
-0.109799 0.183203 -0.187510 100 100 255
0.059740 0.095923 -0.189566 100 100 255
0.105984 -0.117079 0.340649 100 100 255
0.316691 0.092891 0.065840 100 100 255
-0.012381 0.032040 0.080593 100 100 255
0.013754 -0.026930 -0.289480 100 100 255
-0.198760 -0.100334 0.015123 100 100 255
0.034245 -0.226533 0.032401 100 100 255
-0.126812 0.136525 -0.047980 100 100 255
0.048418 0.068075 -0.111302 100 100 255
0.112495 0.235235 0.115329 100 100 255
0.015875 -0.412415 -0.116209 100 100 255
-0.168850 -0.234168 -0.134836 100 100 255
-0.124395 -0.003368 -0.229187 100 100 255
-0.419228 -0.319567 0.338696 100 100 255
0.199428 0.399879 0.314091 100 100 255
0.118565 -0.094782 0.009045 100 100 255
-0.190152 -0.399960 -0.018342 100 100 255
0.344508 0.098348 0.040732 100 100 255
0.026833 0.268760 0.563300 100 100 255
-0.121799 -0.180747 -0.028200 100 100 255
-0.076866 -0.252441 -0.005870 100 100 255
-0.007433 -0.076993 0.118454 100 100 255
0.180049 0.432956 -0.231333 100 100 255
-0.053146 -0.166497 -0.094512 100 100 255
-0.013321 -0.138119 -0.170220 100 100 255
0.024313 0.144048 -0.256375 100 100 255
0.138636 0.250816 0.094611 100 100 255
-0.284675 0.110311 -0.369384 100 100 255
-0.027380 -0.395119 -0.234832 100 100 255
-0.022709 -0.301839 0.006216 100 100 255
0.151257 -0.090070 -0.245484 100 100 255
0.144246 0.007747 0.277145 100 100 255
-0.056980 0.289867 0.070286 100 100 255
-0.170604 -0.177400 0.332447 100 100 255
-0.433813 -0.242583 -0.104621 100 100 255
0.217882 -0.226838 -0.163512 100 100 255
0.058666 0.243802 0.029865 100 100 255
0.045240 -0.051802 -0.039147 100 100 255
-0.204752 -0.358869 -0.049111 100 100 255
-0.014478 0.241058 0.224551 100 100 255
-0.149101 0.143399 -0.247367 100 100 255
-0.187189 -0.072751 0.133292 100 100 255
0.293787 -0.260566 -0.244130 100 100 255
-0.003730 0.087860 -0.357825 100 100 255
-0.132601 0.112627 0.229546 100 100 255
-0.541683 -0.251012 0.031236 100 100 255
-0.159263 0.031879 -0.474120 100 100 255
0.286797 0.062846 0.489335 100 100 255
-0.533238 0.117948 0.087892 100 100 255
0.411031 -0.062021 -0.090409 100 100 255
-0.256983 -0.274690 -0.063741 100 100 255
-0.339392 -0.030704 -0.199338 100 100 255
0.065816 0.035904 0.167710 100 100 255
-0.057509 -0.112760 0.304762 100 100 255
-0.359992 0.338133 0.039726 100 100 255
-0.090565 -0.079339 -0.109115 100 100 255
-0.096493 0.118779 -0.291871 100 100 255
-0.439749 0.186045 -0.355926 100 100 255
0.028362 0.037104 -0.248796 100 100 255
-0.148758 0.228658 -0.249092 100 100 255
0.196277 -0.365248 0.333130 100 100 255
-0.059911 0.206080 0.018988 100 100 255
0.270979 0.200015 0.227160 100 100 255
0.092586 -0.165569 -0.074280 100 100 255
0.092075 -0.068068 -0.151257 100 100 255
-0.391222 0.070769 -0.003800 100 100 255
-0.201138 0.211808 -0.236161 100 100 255
-0.040622 0.389474 0.258131 100 100 255
-0.094106 -0.491072 0.185774 100 100 255
-0.046246 0.235138 0.096891 100 100 255
0.032995 -0.479553 0.202091 100 100 255
-0.256719 -0.017318 -0.137868 100 100 255
0.047359 0.150822 -0.220339 100 100 255
0.126703 0.038750 0.152571 100 100 255
-0.024283 -0.260605 0.012850 100 100 255
0.237864 -0.022964 -0.143226 100 100 255
-0.113016 0.110871 0.398534 100 100 255
0.223166 0.276417 0.281526 100 100 255
-0.202722 -0.252494 0.144173 100 100 255
0.074797 0.154024 0.354062 100 100 255
0.125899 0.014187 -0.208090 100 100 255
-0.064481 -0.146743 -0.027954 100 100 255
-0.099267 -0.033009 -0.048401 100 100 255
-0.059222 -0.116920 0.102648 100 100 255
0.106237 -0.258791 0.137968 100 100 255
-0.024195 -0.330546 0.382930 100 100 255
-0.199164 0.235741 -0.412305 100 100 255
-0.282351 0.342645 0.340413 100 100 255
0.169229 0.118869 0.217189 100 100 255
0.359489 -0.274469 -0.162103 100 100 255
0.450927 0.221175 0.218143 100 100 255
0.160766 -0.509749 0.051031 100 100 255
0.113638 0.062020 0.369915 100 100 255
0.002379 0.085767 -0.135839 100 100 255
0.091307 0.287309 0.143456 100 100 255
0.312063 -0.335682 0.131833 100 100 255
0.061550 -0.119553 -0.230977 100 100 255
0.147982 0.069163 0.015141 100 100 255
-0.355536 0.258432 -0.034751 100 100 255
0.177651 0.328160 -0.131126 100 100 255
0.124616 0.245356 -0.093784 100 100 255
0.155727 -0.153453 0.110230 100 100 255
-0.379351 0.047646 0.105985 100 100 255
0.145479 0.150970 0.348830 100 100 255
0.117084 -0.047785 0.115871 100 100 255
-0.265545 0.039480 -0.088765 100 100 255
0.045662 0.230238 0.203530 100 100 255
0.149070 -0.030245 -0.132318 100 100 255
0.153902 0.002343 0.131939 100 100 255
-0.174561 -0.061917 0.045951 100 100 255
-0.087179 0.278371 0.494320 100 100 255
-0.091537 0.232785 0.250486 100 100 255
-0.345398 -0.068120 -0.228850 100 100 255
-0.103025 -0.088717 -0.141097 100 100 255
-0.090323 -0.151990 0.158376 100 100 255
0.183610 -0.092145 0.006654 100 100 255
0.102395 -0.200187 0.423374 100 100 255
-0.265951 0.069538 -0.134823 100 100 255
-0.322596 -0.277014 -0.115602 100 100 255
0.162795 0.406871 0.114126 100 100 255
-0.269304 -0.228205 -0.044212 100 100 255
0.159964 -0.544873 0.071025 100 100 255
0.114417 -0.051307 -0.000526 100 100 255
-0.280817 -0.038622 -0.036512 100 100 255
-0.273639 0.236738 -0.182493 100 100 255
0.070536 -0.050193 0.264427 100 100 255
0.351778 0.148836 -0.166707 100 100 255
0.398500 -0.022881 0.412913 100 100 255
-0.344133 -0.560414 0.009321 100 100 255
0.023922 0.112904 -0.164230 100 100 255
-0.243792 -0.278433 -0.119770 100 100 255
0.119439 0.010482 0.136249 100 100 255
-0.261822 0.178980 -0.224232 100 100 255
-0.125632 -0.086580 0.192982 100 100 255
0.067858 -0.128433 0.346121 100 100 255
0.351377 0.096737 -0.156329 100 100 255
0.225034 -0.176532 -0.205112 100 100 255
-0.235109 0.236390 -0.028855 100 100 255
0.010888 0.107398 -0.139542 100 100 255
0.297458 0.007228 -0.266090 100 100 255
0.181290 0.106306 0.295277 100 100 255
0.044659 0.122156 -0.274748 100 100 255
0.041948 0.214391 -0.145772 100 100 255
0.057250 0.282264 -0.075238 100 100 255
-0.431953 -0.172574 0.037513 100 100 255
0.229477 0.023129 -0.059762 100 100 255
0.151329 0.247309 -0.082211 100 100 255
-0.102372 0.034863 -0.221434 100 100 255
0.011225 0.016379 0.186206 100 100 255
0.368414 -0.221363 0.102555 100 100 255
0.102942 0.410241 0.148571 100 100 255
0.018751 0.067306 0.236739 100 100 255
0.101526 -0.055618 0.245058 100 100 255
0.153190 -0.023712 0.040677 100 100 255
0.026476 0.003445 -0.198172 100 100 255
0.058694 0.113374 -0.158825 100 100 255
0.252844 0.199647 -0.062939 100 100 255
0.137899 0.349012 0.036882 100 100 255
0.160966 -0.170922 0.242048 100 100 255
-0.028634 0.330545 -0.255740 100 100 255
-0.259799 -0.138673 0.308810 100 100 255
0.054610 -0.000734 0.100072 100 100 255
0.019776 -0.176227 0.134964 100 100 255
0.084536 -0.086029 0.006347 100 100 255
0.280866 -0.128081 0.061234 100 100 255
0.238973 0.028995 0.235034 100 100 255
0.426304 -0.145139 0.257127 100 100 255
-0.082825 0.073612 -0.037482 100 100 255
-0.219620 -0.235146 -0.263710 100 100 255
-0.114710 -0.159915 0.157420 100 100 255
-0.082146 -0.261826 -0.041948 100 100 255
0.108847 0.347351 0.443017 100 100 255
-0.585208 -0.056163 -0.064938 100 100 255
-0.136860 0.129457 -0.179473 100 100 255
0.205988 0.241676 -0.217156 100 100 255
-0.032513 0.136545 0.014961 100 100 255
0.253139 -0.064055 -0.074625 100 100 255
-0.170920 -0.049101 -0.250203 100 100 255
0.333028 0.224962 -0.338423 100 100 255
0.057813 0.178014 -0.035341 100 100 255
0.067452 -0.103604 0.202391 100 100 255
0.405953 0.346945 -0.243268 100 100 255
0.202976 0.155788 0.148512 100 100 255
0.245380 0.005287 0.120916 100 100 255
0.041011 0.018805 -0.109015 100 100 255
-0.148821 -0.204784 -0.186935 100 100 255
0.074365 -0.151599 -0.089587 100 100 255
-0.184396 0.111233 -0.240643 100 100 255
0.085800 0.266230 -0.094634 100 100 255
-0.056129 -0.048287 0.108816 100 100 255
-0.018601 -0.062943 -0.052524 100 100 255
-0.227052 -0.033160 -0.285297 100 100 255
0.192673 0.101076 -0.209719 100 100 255
0.062219 0.245551 0.213949 100 100 255
0.190933 0.029780 -0.285012 100 100 255
-0.126824 0.268206 -0.085632 100 100 255
-0.116007 -0.208681 0.251407 100 100 255
0.166918 0.028334 0.369930 100 100 255
0.148704 0.033026 -0.016153 100 100 255
0.078434 -0.111746 0.777331 100 100 255
0.140802 0.001250 -0.203833 100 100 255
0.225446 0.282667 0.014767 100 100 255
-0.152882 -0.049748 -0.303306 100 100 255
0.434833 0.555256 0.079906 100 100 255
0.100444 0.124317 -0.074584 100 100 255
0.033107 -0.194158 -0.073073 100 100 255
-0.026294 -0.305229 0.000307 100 100 255
-0.128923 -0.080831 0.264000 100 100 255
0.132028 -0.023001 -0.176260 100 100 255
0.149991 0.086774 0.316076 100 100 255
0.146789 0.255048 -0.111079 100 100 255
0.228093 0.335714 0.233857 100 100 255
-0.278614 0.134069 -0.140362 100 100 255
-0.263950 0.276463 0.318086 100 100 255
0.255576 0.202255 -0.210987 100 100 255
-0.001186 -0.004925 -0.033436 100 100 255
-0.069538 -0.269140 -0.135725 100 100 255
-0.097762 -0.166119 -0.070719 100 100 255
0.498765 0.178455 0.052406 100 100 255
-0.144297 0.090943 0.047872 100 100 255
-0.168576 0.044049 0.122194 100 100 255
-0.018138 0.316982 -0.096577 100 100 255
-0.182307 0.295007 0.084907 100 100 255
-0.089786 0.268253 0.069183 100 100 255
0.323228 -0.202126 0.029511 100 100 255
0.220161 -0.103597 -0.048100 100 100 255
-0.090429 -0.101516 0.003000 100 100 255
0.254851 -0.048230 0.225611 100 100 255
0.427442 0.430213 0.038750 100 100 255
-0.183853 0.093830 0.127736 100 100 255
-0.465464 0.095205 -0.182701 100 100 255
0.044196 0.107503 0.029947 100 100 255
0.041422 0.111394 0.222877 100 100 255
0.391510 -0.236858 0.037402 100 100 255
0.190260 0.125650 -0.054621 100 100 255
-0.158679 -0.207069 0.139806 100 100 255
0.107384 0.199330 -0.050507 100 100 255
0.086304 -0.156064 -0.016325 100 100 255
-0.507095 0.011269 0.113430 100 100 255
0.093092 -0.040249 0.275839 100 100 255
-0.218447 0.217691 0.073875 100 100 255
0.080604 0.100419 0.304566 100 100 255
0.136058 -0.246187 -0.019320 100 100 255
0.023756 0.013549 -0.124675 100 100 255
0.024046 -0.097893 -0.129754 100 100 255
0.046758 0.163525 0.333696 100 100 255
0.478859 -0.232199 -0.087121 100 100 255
-0.065481 -0.061119 -0.292382 100 100 255
0.008471 -0.191581 0.200883 100 100 255
0.160462 0.065350 0.271309 100 100 255
0.442003 -0.065071 -0.147247 100 100 255
-0.038015 -0.261713 0.206620 100 100 255
0.198830 -0.333655 -0.178179 100 100 255
-0.137224 0.039687 -0.007470 100 100 255
-0.195090 0.083491 0.041169 100 100 255
-0.373956 -0.013847 0.177111 100 100 255
0.079026 0.210788 -0.166090 100 100 255
-0.443120 -0.077183 0.054616 100 100 255
-0.193031 -0.013552 -0.425369 100 100 255
0.239726 0.003639 0.176172 100 100 255
0.377838 -0.089841 -0.024592 100 100 255
0.016262 -0.194704 0.177571 100 100 255
0.024619 -0.193859 0.044879 100 100 255
0.163018 -0.049300 -0.013478 100 100 255
0.447739 -0.369516 0.125517 100 100 255
0.150124 -0.020959 -0.032882 100 100 255
0.260397 0.204349 0.098387 100 100 255
0.049259 0.035259 0.035324 100 100 255
-0.256351 0.250804 -0.134723 100 100 255
0.073344 0.245983 -0.004416 100 100 255
0.115452 0.016138 -0.369560 100 100 255
0.179303 -0.148703 -0.074972 100 100 255
-0.042573 -0.131124 -0.078510 100 100 255
-0.039232 -0.055996 0.121868 100 100 255
0.261291 0.085098 0.464377 100 100 255
0.004150 0.058760 0.006295 100 100 255
0.209586 -0.276294 -0.352248 100 100 255
-0.373933 -0.133632 -0.004169 100 100 255
-0.006175 0.120969 0.152081 100 100 255
-0.045112 0.055613 0.211632 100 100 255
0.096837 -0.107383 -0.382012 100 100 255
-0.002380 0.216110 0.004367 100 100 255
0.257773 -0.001668 0.131451 100 100 255
-0.068708 0.129130 0.158176 100 100 255
0.108955 -0.153570 0.210822 100 100 255
0.426883 0.213492 -0.032131 100 100 255
0.089169 0.039526 0.347846 100 100 255
0.230551 0.212783 -0.221676 100 100 255
-0.372232 0.135100 -0.128062 100 100 255
0.149897 0.313371 -0.219927 100 100 255
0.343296 0.139415 0.113697 100 100 255
-0.067557 -0.172799 0.049148 100 100 255
0.042910 -0.075896 0.052910 100 100 255
-0.013065 -0.223017 0.120337 100 100 255
0.174510 -0.201540 -0.190318 100 100 255
0.019335 -0.242252 -0.265077 100 100 255
-0.342065 -0.125752 0.045691 100 100 255
-0.025701 -0.145133 0.051918 100 100 255
-0.375505 0.067623 0.135372 100 100 255
-0.007265 0.056753 -0.193950 100 100 255
0.350312 -0.169170 0.072152 100 100 255
-0.179971 0.385829 -0.253113 100 100 255
0.384738 0.037590 0.135439 100 100 255
-0.312699 0.065723 0.233450 100 100 255
-0.002149 0.146424 0.083061 100 100 255
-0.142998 -0.255715 -0.127497 100 100 255
-0.323404 0.107808 -0.235601 100 100 255
0.133933 -0.242512 -0.133840 100 100 255
-0.238879 0.077375 -0.161736 100 100 255
0.127016 -0.170876 0.009540 100 100 255
-0.046568 -0.026708 0.243589 100 100 255
0.480190 0.029884 -0.312553 100 100 255
-0.141951 0.205808 -0.103567 100 100 255
0.188500 0.139577 -0.271769 100 100 255
0.304877 0.263601 0.163784 100 100 255
0.338859 0.263305 0.100542 100 100 255
0.000631 0.020229 0.049414 100 100 255
0.003408 -0.113296 -0.450745 100 100 255
-0.056028 0.043274 0.021128 100 100 255
0.148402 -0.266135 0.001800 100 100 255
-0.103596 0.257237 -0.288177 100 100 255
0.372214 -0.100694 0.031704 100 100 255
-0.033561 -0.299449 -0.209288 100 100 255
0.134002 -0.070018 -0.187254 100 100 255
-0.213449 0.044958 -0.057206 100 100 255
0.036999 -0.019699 0.085522 100 100 255
0.043157 0.074266 0.045298 100 100 255
0.123361 0.491764 0.105172 100 100 255
-0.117465 -0.007105 0.155297 100 100 255
-0.169724 -0.142714 -0.471306 100 100 255
0.159110 0.129650 -0.118558 100 100 255
-0.193512 -0.164917 -0.160853 100 100 255
0.037428 0.278642 0.072036 100 100 255
0.244115 0.078371 0.091258 100 100 255
0.269848 -0.341294 -0.370813 100 100 255
-0.107196 -0.101880 0.307182 100 100 255
-0.239905 -0.134716 -0.183627 100 100 255
0.128118 -0.231385 0.217578 100 100 255
0.070999 0.259877 0.135256 100 100 255
-0.123525 0.190957 -0.247532 100 100 255
0.285796 0.074939 -0.180399 100 100 255
-0.257185 0.083091 0.189415 100 100 255
0.064745 0.071640 -0.070020 100 100 255
-0.045984 -0.248426 0.087501 100 100 255
0.277900 -0.143450 -0.068468 100 100 255
0.197304 -0.096182 -0.015355 100 100 255
-0.128043 0.431222 -0.030626 100 100 255
0.327884 0.138474 -0.277497 100 100 255
-0.150586 -0.421302 0.297923 100 100 255
-0.117067 0.112465 0.189692 100 100 255
0.450148 -0.290578 0.227694 100 100 255
0.450091 0.149052 0.061111 100 100 255
-0.276750 0.001171 0.077761 100 100 255
-0.272979 -0.048171 0.311032 100 100 255
0.413419 0.221516 0.265250 100 100 255
-0.223673 -0.473757 -0.101710 100 100 255
0.014318 0.195385 -0.062571 100 100 255
0.313200 -0.148713 0.185279 100 100 255
-0.192173 -0.146267 0.002971 100 100 255
0.169747 -0.029410 -0.018920 100 100 255
-0.025713 0.103867 0.320858 100 100 255
-0.093859 0.498229 0.223389 100 100 255
0.016077 -0.016825 -0.061446 100 100 255
0.157349 0.160260 0.318247 100 100 255
0.080090 -0.140636 -0.205371 100 100 255
-0.557815 0.183856 0.233352 100 100 255
0.148763 0.104811 0.064493 100 100 255
0.195405 0.097128 -0.371237 100 100 255
-0.272672 -0.124620 0.165716 100 100 255
-0.238515 -0.120698 0.009052 100 100 255
0.183154 -0.184755 0.016297 100 100 255
-0.052912 -0.450603 0.126727 100 100 255
0.196420 0.304403 -0.199287 100 100 255
0.041482 0.235980 -0.152384 100 100 255
-0.258552 0.249353 -0.097165 100 100 255
0.197744 -0.259058 -0.085485 100 100 255
0.150955 0.095419 0.232827 100 100 255
0.184723 -0.551007 0.145347 100 100 255
0.034680 -0.426460 -0.129958 100 100 255
-0.265822 0.030623 0.322406 100 100 255
0.071093 -0.118658 0.058116 100 100 255
0.022595 -0.148026 -0.335679 100 100 255
-0.035194 -0.478660 -0.125683 100 100 255
-0.002327 -0.113770 0.310840 100 100 255
-0.056011 -0.066080 -0.150619 100 100 255
-0.108325 -0.001993 -0.289156 100 100 255
-0.208358 0.266968 -0.109110 100 100 255
-0.338907 0.127239 -0.371727 100 100 255
-0.115888 0.101550 -0.413622 100 100 255
-0.144632 -0.023443 -0.195747 100 100 255
0.096818 0.284005 0.127501 100 100 255
-0.171452 0.252126 -0.223100 100 100 255
-0.324001 -0.068474 0.095815 100 100 255
0.368416 -0.418391 0.107564 100 100 255
0.037817 -0.152984 -0.389185 100 100 255
-0.094799 -0.117681 0.152785 100 100 255
-0.055064 0.176424 -0.130548 100 100 255
0.172062 0.327156 -0.009586 100 100 255
-0.331169 -0.328629 -0.035626 100 100 255
0.241204 -0.242162 -0.063177 100 100 255
0.211908 0.169189 -0.013453 100 100 255
-0.013125 0.107286 0.312456 100 100 255
-0.154852 0.132539 -0.045731 100 100 255
-0.168171 0.044105 -0.016130 100 100 255
-0.240757 -0.100903 0.193500 100 100 255
0.220737 -0.097582 -0.106401 100 100 255
-0.193346 0.146538 -0.460445 100 100 255
0.055770 -0.029998 0.127874 100 100 255
0.205626 -0.071485 0.183410 100 100 255
-0.212215 -0.029920 -0.262737 100 100 255
0.217732 0.006301 0.007974 100 100 255
-0.166592 0.313545 -0.019997 100 100 255
-0.038691 0.012160 0.229917 100 100 255
0.071916 0.273575 0.236510 100 100 255
0.209771 -0.162380 -0.237381 100 100 255
0.359138 0.231792 -0.055523 100 100 255
0.056121 0.182417 -0.248828 100 100 255
0.277538 0.202332 0.339876 100 100 255
-0.508482 -0.142886 0.232206 100 100 255
0.127724 0.008525 -0.457549 100 100 255
-0.157768 -0.210901 -0.006038 100 100 255
-0.136252 0.041312 -0.027599 100 100 255
0.142586 0.018347 0.113897 100 100 255
0.276912 0.326647 -0.483551 100 100 255
-0.111225 0.193783 -0.058019 100 100 255
0.045363 0.202774 -0.273252 100 100 255
-0.117929 0.243912 0.207843 100 100 255
-0.035165 0.329999 -0.363931 100 100 255
0.023617 0.111681 -0.019657 100 100 255
-0.130071 -0.202277 -0.319030 100 100 255
-0.176076 -0.299087 0.103644 100 100 255
-0.272957 0.171538 -0.117220 100 100 255
0.039120 0.047961 0.201298 100 100 255
0.306983 0.116676 -0.001861 100 100 255
-0.197880 -0.126727 -0.165655 100 100 255
0.040363 -0.533177 0.162646 100 100 255
0.164468 -0.176613 -0.205312 100 100 255
0.088448 0.147431 0.471885 100 100 255
0.125247 -0.057701 0.251057 100 100 255
-0.053023 -0.195035 -0.020175 100 100 255
-0.121621 -0.275128 -0.168683 100 100 255
0.050851 -0.077837 -0.111640 100 100 255
-0.107199 -0.225515 -0.050623 100 100 255
0.086802 0.100877 0.141422 100 100 255
-0.403630 -0.347219 0.147869 100 100 255
-0.034273 0.007150 -0.146493 100 100 255
0.149040 -0.132675 0.055125 100 100 255
0.234618 -0.058540 0.193231 100 100 255
0.113966 0.555487 -0.085174 100 100 255
-0.244549 0.416356 -0.075815 100 100 255
0.212294 -0.391558 0.034818 100 100 255
0.049228 -0.163186 -0.217281 100 100 255
-0.461701 0.118763 0.184113 100 100 255
0.218021 0.391439 -0.004690 100 100 255
0.217563 0.379895 0.199086 100 100 255
0.162210 0.346541 0.197161 100 100 255
-0.182396 0.169605 -0.182248 100 100 255
0.029284 0.027104 -0.034589 100 100 255
0.017741 -0.376336 0.132721 100 100 255
-0.261969 0.288919 -0.163023 100 100 255
0.264735 -0.155131 -0.078278 100 100 255
-0.150574 0.023104 -0.028787 100 100 255
0.111799 0.026130 -0.235623 100 100 255
0.022619 -0.025622 0.156425 100 100 255
0.121862 0.104162 -0.273852 100 100 255
0.264474 -0.351281 0.092181 100 100 255
0.313130 -0.153480 -0.133766 100 100 255
0.156533 0.017878 -0.532054 100 100 255
0.034494 -0.553278 0.288907 100 100 255
0.094002 0.089616 -0.179028 100 100 255
0.000863 0.186887 -0.283639 100 100 255
0.266225 -0.006371 0.189950 100 100 255
-0.335167 0.426643 0.073029 100 100 255
0.127849 0.106875 0.103639 100 100 255
-0.315201 -0.278638 -0.168589 100 100 255
-0.110056 -0.371251 -0.138024 100 100 255
-0.072001 -0.211778 -0.022288 100 100 255
0.275101 -0.089445 -0.268772 100 100 255
0.273988 -0.395891 -0.123467 100 100 255
0.041660 0.098342 0.090352 100 100 255
-0.094840 -0.069200 -0.034068 100 100 255
0.110992 0.010653 -0.268033 100 100 255
-0.023532 0.066176 -0.132252 100 100 255
0.106356 0.270046 -0.025719 100 100 255
-0.149889 0.283587 -0.050697 100 100 255
-0.184902 0.345443 0.277973 100 100 255
0.107355 -0.284755 -0.057194 100 100 255
0.233904 0.194845 -0.123936 100 100 255
0.363418 -0.154780 -0.200202 100 100 255
0.378299 -0.034969 -0.254069 100 100 255
-0.040304 0.099286 -0.088357 100 100 255
-0.046916 0.144203 0.292958 100 100 255
0.156627 0.284041 -0.113087 100 100 255
-0.137454 0.220250 -0.384513 100 100 255
-0.087389 -0.060815 0.267222 100 100 255
-0.345027 0.052234 0.108331 100 100 255
0.098516 -0.047553 0.194209 100 100 255
0.088654 -0.194007 0.044447 100 100 255
0.037709 -0.077479 -0.077343 100 100 255
0.340650 0.190269 -0.043233 100 100 255
-0.011142 -0.358102 0.008661 100 100 255
0.231643 -0.322235 -0.063058 100 100 255
0.068642 -0.038474 0.164386 100 100 255
-0.045798 -0.082520 -0.079872 100 100 255
-0.349857 0.269112 -0.026705 100 100 255
-0.025693 -0.065598 0.063892 100 100 255
-0.029378 0.029695 0.081530 100 100 255
0.027181 0.105904 -0.154046 100 100 255
-0.480517 0.187975 -0.168505 100 100 255
0.086099 0.066172 0.174799 100 100 255
0.002547 -0.159361 0.035648 100 100 255
0.063891 0.102331 -0.067320 100 100 255
-0.205668 -0.221494 -0.038954 100 100 255
-0.371536 -0.203974 0.404235 100 100 255
0.163831 0.082113 0.141180 100 100 255
0.049016 0.106220 0.001701 100 100 255
0.283620 -0.154336 0.275834 100 100 255
0.191616 -0.183370 -0.185663 100 100 255
0.171868 0.209762 -0.003900 100 100 255
-0.065712 -0.111054 -0.095428 100 100 255
0.120506 0.016851 0.063481 100 100 255
0.016982 -0.221468 0.302852 100 100 255
0.597660 0.095088 0.054074 100 100 255
0.151376 -0.038918 0.026743 100 100 255
0.052844 0.021982 -0.180301 100 100 255
-0.042467 -0.119803 0.112186 100 100 255
0.455014 -0.210572 -0.047592 100 100 255
0.068416 -0.102948 -0.254968 100 100 255
-0.067381 0.098395 -0.214171 100 100 255
-0.241883 -0.094596 -0.162358 100 100 255
0.171549 -0.260622 -0.239280 100 100 255
0.346401 -0.054063 0.162459 100 100 255
0.047751 0.146301 0.022841 100 100 255
-0.041183 0.065245 0.230244 100 100 255
-0.105372 -0.396639 0.064134 100 100 255
0.469653 0.088499 -0.592189 100 100 255
-0.000472 -0.048795 -0.040308 100 100 255
0.070456 0.257046 -0.070854 100 100 255
-0.185872 -0.198495 0.362468 100 100 255
0.150967 -0.239960 0.247890 100 100 255
0.235855 -0.175477 0.115193 100 100 255
-0.073930 0.005172 -0.296939 100 100 255
-0.028168 -0.079534 0.179468 100 100 255
0.181641 -0.111882 -0.234379 100 100 255
0.174786 -0.130209 -0.134873 100 100 255
0.334847 -0.182176 0.203430 100 100 255
0.409595 -0.200172 0.052859 100 100 255
-0.064255 -0.044955 0.178214 100 100 255
0.128023 -0.300014 -0.159071 100 100 255
0.190112 -0.063655 0.144093 100 100 255
0.578718 0.007694 -0.228360 100 100 255
-0.096603 -0.059867 -0.212399 100 100 255
-0.067211 -0.266793 -0.098089 100 100 255
0.062584 0.118975 -0.115868 100 100 255
0.211337 -0.092674 -0.349417 100 100 255
-0.225465 -0.018148 0.197539 100 100 255
0.149738 -0.150649 0.084273 100 100 255
-0.031877 0.134931 -0.221493 100 100 255
0.088472 -0.357056 0.037345 100 100 255
0.033427 -0.055103 -0.193202 100 100 255
0.042361 0.399779 -0.299409 100 100 255
0.484383 0.069746 -0.074537 100 100 255
-0.231130 -0.109507 -0.182963 100 100 255
0.132064 0.192442 -0.197559 100 100 255
0.177021 0.041842 -0.102750 100 100 255
0.102294 -0.048756 -0.199396 100 100 255
-0.014515 -0.109409 0.376175 100 100 255
-0.091250 -0.111960 -0.210735 100 100 255
0.038024 -0.060647 -0.020563 100 100 255
-0.055310 0.253725 0.005098 100 100 255
0.117821 0.179482 -0.169199 100 100 255
0.259077 -0.124812 -0.122555 100 100 255
0.160841 -0.429957 0.010044 100 100 255
-0.189604 0.132928 -0.299663 100 100 255
-0.367298 -0.329508 0.017533 100 100 255
0.175097 -0.337846 0.039883 100 100 255
-0.115981 -0.208556 0.272185 100 100 255
0.067481 -0.179595 0.254121 100 100 255
0.036722 -0.067257 -0.214049 100 100 255
0.098406 -0.123417 0.216034 100 100 255
-0.105897 -0.197187 0.245827 100 100 255
-0.142060 -0.173094 -0.235621 100 100 255
-0.309075 -0.010587 -0.193256 100 100 255
-0.263383 -0.075407 -0.130614 100 100 255
-0.030784 0.052466 -0.194492 100 100 255
-0.161384 0.009990 0.179826 100 100 255
-0.066923 0.109771 0.000273 100 100 255
0.191816 -0.160272 0.533566 100 100 255
0.104600 -0.149088 0.159720 100 100 255
-0.214778 -0.172455 -0.087278 100 100 255
-0.241582 0.037169 0.186478 100 100 255
0.142920 0.161108 -0.220369 100 100 255
0.125317 -0.057986 0.118582 100 100 255
0.092259 0.064014 -0.264378 100 100 255
-0.018106 -0.004612 -0.043522 100 100 255
-0.201564 0.156388 -0.085795 100 100 255
-0.089035 -0.473686 -0.074161 100 100 255
-0.179643 0.163831 0.043537 100 100 255
-0.035724 -0.051028 0.166272 100 100 255
-0.042506 0.059932 0.182368 100 100 255
-0.014947 -0.198290 0.003767 100 100 255
-0.146903 -0.162819 -0.186730 100 100 255
-0.536874 -0.381901 -0.093932 100 100 255
0.050383 0.025218 0.003768 100 100 255
-0.392855 0.142127 0.329599 100 100 255
-0.081077 -0.243241 -0.486930 100 100 255
0.061158 0.004294 0.065884 100 100 255
-0.040923 0.217885 0.409499 100 100 255
-0.070936 0.149384 -0.095087 100 100 255
0.092381 0.076117 0.085807 100 100 255
-0.351913 0.285039 -0.033428 100 100 255
0.089434 0.049869 0.178355 100 100 255
-0.019956 0.264557 -0.118527 100 100 255
-0.071196 0.004717 0.049479 100 100 255
-0.088903 0.231324 -0.182120 100 100 255
0.180004 0.569121 0.129788 100 100 255
0.025383 -0.288307 -0.079850 100 100 255
0.088606 0.119460 -0.072334 100 100 255
-0.085698 0.169435 0.245766 100 100 255
-0.271025 -0.084829 0.115034 100 100 255
-0.295699 -0.088572 0.247492 100 100 255
-0.275233 0.095377 -0.158860 100 100 255
0.135336 -0.213038 -0.133604 100 100 255
-0.041867 -0.287369 0.232568 100 100 255
-0.196489 -0.199618 0.062408 100 100 255
0.193043 0.022055 0.054947 100 100 255
-0.189495 -0.193724 0.202291 100 100 255
0.168124 0.249631 -0.234322 100 100 255
-0.020114 -0.048061 0.099124 100 100 255
-0.048462 0.204336 0.403852 100 100 255
-0.012525 0.096330 0.109582 100 100 255
0.042543 -0.126755 0.019920 100 100 255
0.377445 -0.231755 -0.025290 100 100 255
-0.017620 -0.117094 -0.078887 100 100 255
-0.078717 -0.390401 -0.153691 100 100 255
-0.180561 -0.017760 0.031871 100 100 255
-0.002825 -0.000596 0.185233 100 100 255
0.086647 -0.360761 0.333951 100 100 255
-0.047723 0.054827 0.287786 100 100 255
0.400037 -0.120744 -0.008469 100 100 255
0.190131 -0.061380 -0.012477 100 100 255
-0.029055 -0.239097 -0.155314 100 100 255
-0.137427 -0.078301 0.400481 100 100 255
-0.101628 -0.001624 -0.104474 100 100 255
0.272220 -0.392943 0.067844 100 100 255
-0.185474 -0.221035 -0.142577 100 100 255
-0.163657 0.037805 0.246711 100 100 255
0.185234 0.063274 0.030255 100 100 255
-0.163363 -0.016172 0.029978 100 100 255
0.290524 -0.051635 0.409095 100 100 255
0.194734 0.168079 -0.070254 100 100 255
-0.197274 -0.314043 0.166602 100 100 255
0.160749 -0.118103 0.287287 100 100 255
-0.314216 0.061470 -0.208437 100 100 255
0.181533 -0.151680 -0.037359 100 100 255
-0.000777 0.066409 -0.033895 100 100 255
0.230658 -0.028542 -0.239320 100 100 255
0.067983 -0.516900 0.231175 100 100 255
0.346070 -0.130434 0.010020 100 100 255
-0.188282 0.086667 -0.262197 100 100 255
0.193209 -0.404060 0.016365 100 100 255
-0.686008 0.058946 0.104830 100 100 255
-0.279328 -0.259036 -0.261100 100 100 255
-0.101498 0.163878 0.219679 100 100 255
-0.123274 -0.391710 -0.264512 100 100 255
0.258657 -0.039502 -0.112022 100 100 255
0.346384 0.062999 0.021368 100 100 255
-0.061688 0.059127 0.128751 100 100 255
-0.132363 -0.380606 0.092261 100 100 255
-0.034260 0.095659 0.095299 100 100 255
-0.178661 0.020847 -0.079332 100 100 255
-0.043680 0.048969 0.218128 100 100 255
0.016932 -0.485097 0.048813 100 100 255
-0.100212 0.316703 0.194344 100 100 255
-0.048712 0.214558 0.365679 100 100 255
0.011130 0.265798 0.079445 100 100 255
-0.212860 -0.106027 -0.030641 100 100 255
0.072299 -0.092093 -0.030055 100 100 255
0.228286 0.378621 -0.155760 100 100 255
-0.153890 -0.063962 -0.061424 100 100 255
-0.019156 0.259773 0.247516 100 100 255
-0.148453 0.081854 0.188374 100 100 255
-0.062776 -0.110118 0.013881 100 100 255
0.068310 -0.211343 0.137910 100 100 255
-0.000584 -0.357075 0.191234 100 100 255
-0.060229 0.092458 0.100564 100 100 255
-0.012500 0.055510 0.134498 100 100 255
-0.044523 -0.130575 -0.022357 100 100 255
0.291138 -0.258812 0.149533 100 100 255
0.262495 -0.308028 -0.123980 100 100 255
-0.007713 0.130907 -0.046908 100 100 255
-0.173885 0.011614 0.151651 100 100 255
-0.011299 -0.112821 0.085815 100 100 255
-0.020075 0.060471 -0.166166 100 100 255
-0.083826 -0.093162 -0.014793 100 100 255
0.260458 -0.335916 0.130030 100 100 255
0.117409 -0.035515 -0.301984 100 100 255
0.092391 -0.283738 0.152873 100 100 255
0.034938 -0.082785 0.127623 100 100 255
-0.011434 0.077859 0.164196 100 100 255
0.185444 -0.209426 0.123412 100 100 255
-0.102386 0.011518 -0.005947 100 100 255
0.176326 0.308647 0.170264 100 100 255
-0.102067 -0.260025 0.080649 100 100 255
0.212794 0.062103 0.322030 100 100 255
-0.148270 -0.093832 0.083078 100 100 255
-0.005465 -0.002765 0.198855 100 100 255
0.220766 -0.315682 0.036546 100 100 255
0.345676 0.267777 0.068295 100 100 255
0.054867 -0.079118 0.004190 100 100 255
0.082461 -0.046079 0.123613 100 100 255
0.334830 -0.132899 0.030309 100 100 255
-0.080567 -0.009067 0.337454 100 100 255
-0.208505 -0.034042 -0.001808 100 100 255
-0.246519 0.285617 -0.011724 100 100 255
-0.035262 0.072238 -0.303454 100 100 255
-0.111040 0.316839 -0.166651 100 100 255
-0.208471 0.005710 0.146787 100 100 255
-0.242417 0.477423 -0.100295 100 100 255
-0.175915 0.049989 0.316044 100 100 255
-0.050602 -0.231037 0.246508 100 100 255
0.310199 0.277178 -0.076557 100 100 255
0.186968 -0.093320 0.045595 100 100 255
0.470603 -0.255496 0.093238 100 100 255
0.033439 -0.018428 -0.164273 100 100 255
0.231339 0.094900 0.192356 100 100 255
-0.207215 -0.034438 -0.135738 100 100 255
0.013794 0.177275 -0.128510 100 100 255
-0.042142 0.094874 0.216364 100 100 255
0.170718 -0.052238 0.266030 100 100 255
-0.212936 0.112217 -0.056162 100 100 255
-0.162690 -0.289408 -0.017325 100 100 255
-0.160679 0.104627 -0.011595 100 100 255
0.108395 -0.045537 0.115408 100 100 255
-0.121806 0.274939 -0.044231 100 100 255
0.097478 0.041738 -0.045934 100 100 255
-0.063463 -0.003408 -0.285177 100 100 255
0.060371 0.125588 -0.165259 100 100 255
-0.578294 0.202979 0.174602 100 100 255
-0.164626 -0.034831 -0.067819 100 100 255
-0.460642 0.045373 0.288437 100 100 255
0.288866 0.224462 -0.150071 100 100 255
-0.140668 0.039575 -0.024833 100 100 255
0.116869 -0.206058 -0.436509 100 100 255
-0.081592 -0.064136 0.117749 100 100 255
0.129200 0.066763 -0.040801 100 100 255
-0.026972 0.004127 0.010035 100 100 255
0.074348 -0.076428 -0.070603 100 100 255
0.013810 0.029456 -0.019319 100 100 255
-0.071079 0.061803 0.015944 100 100 255
0.057891 0.017315 -0.381581 100 100 255
-0.156873 -0.201300 0.246728 100 100 255
-0.171289 -0.086770 -0.089294 100 100 255
-0.013085 -0.290101 -0.114602 100 100 255
-0.276322 -0.217120 0.170689 100 100 255
0.004473 0.096727 0.025154 100 100 255
0.048616 0.041840 0.092755 100 100 255
0.093754 0.214134 0.049184 100 100 255
0.004612 -0.170822 0.198462 100 100 255
0.088026 -0.035752 0.132065 100 100 255
0.035345 0.257206 -0.239653 100 100 255
-0.333839 0.314040 0.186477 100 100 255
0.269038 0.263437 0.330986 100 100 255
-0.127275 -0.044625 0.037304 100 100 255
0.099352 0.031954 0.337149 100 100 255
0.150988 -0.239747 0.060178 100 100 255
0.384097 0.189637 -0.112569 100 100 255
-0.165406 -0.004953 0.248401 100 100 255
0.233424 0.269804 -0.100017 100 100 255
0.281598 0.170163 0.062937 100 100 255
0.079948 -0.134124 -0.263876 100 100 255
-0.406093 -0.269316 0.373185 100 100 255
-0.246179 0.341258 -0.001403 100 100 255
-0.094810 -0.299336 -0.125355 100 100 255
-0.144472 -0.276769 -0.129477 100 100 255
-0.184162 -0.385570 0.014793 100 100 255
-0.049322 -0.465418 -0.010825 100 100 255
0.260119 0.211947 0.238324 100 100 255
0.069096 -0.122842 -0.145641 100 100 255
0.053382 -0.047159 -0.069223 100 100 255
0.325326 -0.050896 0.121221 100 100 255
0.045991 0.006744 0.197098 100 100 255
0.005736 -0.140882 -0.177871 100 100 255
0.290931 -0.313407 -0.118129 100 100 255
0.129346 -0.063437 -0.144414 100 100 255
0.037625 -0.106171 -0.049466 100 100 255
-0.105525 -0.091062 -0.008657 100 100 255
-0.171257 0.274877 -0.012683 100 100 255
0.222319 0.203386 -0.071270 100 100 255
-0.008099 0.109413 0.196587 100 100 255
-0.395154 -0.100246 -0.015710 100 100 255
0.103895 -0.195729 -0.269361 100 100 255
-0.045635 0.261540 -0.010041 100 100 255
-0.169516 0.380304 -0.188670 100 100 255
-0.185610 0.168658 0.047581 100 100 255
-0.159473 -0.276961 -0.242683 100 100 255
-0.311901 0.049830 -0.070745 100 100 255
-0.014112 0.246573 -0.067170 100 100 255
-0.092611 0.103204 0.107515 100 100 255
-0.136147 0.131567 -0.196750 100 100 255
-0.058366 0.538106 -0.052635 100 100 255
-0.137086 0.479910 0.198486 100 100 255
0.200312 -0.017768 0.220759 100 100 255
-0.010165 -0.205147 -0.057134 100 100 255
0.176091 0.075348 -0.143042 100 100 255
0.173979 0.015728 -0.346742 100 100 255
-0.075084 0.011904 0.235447 100 100 255
-0.052809 0.267638 0.228056 100 100 255
0.046221 0.057903 -0.023554 100 100 255
0.139732 -0.245273 0.144758 100 100 255
0.371734 -0.066209 0.060282 100 100 255
-0.235503 0.517390 -0.223868 100 100 255
-0.024308 0.281261 -0.013846 100 100 255
0.067611 0.039095 -0.185426 100 100 255
0.051461 -0.334864 0.069097 100 100 255
0.158556 0.038562 0.151369 100 100 255
-0.387974 0.187062 -0.034163 100 100 255
-0.040366 -0.078908 -0.156059 100 100 255
0.084130 0.243451 -0.043878 100 100 255
-0.023192 -0.127951 -0.004964 100 100 255
-0.281028 0.095021 -0.026450 100 100 255
-0.083815 -0.040504 -0.021937 100 100 255
-0.287290 -0.155518 -0.400750 100 100 255
-0.125870 0.220468 0.090657 100 100 255
0.426367 -0.206797 -0.085896 100 100 255
-0.240526 -0.005151 -0.035276 100 100 255
-0.052871 0.282683 0.241016 100 100 255
-0.132245 0.129553 0.237208 100 100 255
0.086737 0.120340 0.051665 100 100 255
0.317888 -0.192441 0.102069 100 100 255
0.139950 -0.181912 0.383657 100 100 255
-0.381225 -0.019058 0.055522 100 100 255
-0.174828 -0.151132 0.076144 100 100 255
0.398778 0.280103 0.008535 100 100 255
-0.146968 0.059196 -0.192829 100 100 255
-0.008518 0.217229 0.174886 100 100 255
0.154060 0.167513 0.060085 100 100 255
0.009359 0.214761 -0.054280 100 100 255
