ply
format ascii 1.0
element vertex 1180
property float x
property float y
property float z
property uchar red
property uchar green
property uchar blue
end_header
0.114128 0.031211 0.076405 255 100 100
0.025995 0.180317 0.043054 255 100 100
0.268773 -0.040827 0.460471 255 100 100
-0.196095 -0.049552 -0.218481 255 100 100
-0.128840 -0.223355 0.239705 255 100 100
0.244262 0.204006 -0.125452 255 100 100
0.030324 -0.034739 -0.186380 255 100 100
0.202242 0.077962 0.323265 255 100 100
-0.042413 0.003137 -0.530788 255 100 100
-0.010310 -0.062233 -0.231714 255 100 100
-0.039664 -0.090420 -0.040053 255 100 100
0.078349 -0.010782 0.074432 255 100 100
0.375208 0.109734 -0.405302 255 100 100
-0.101886 0.117448 -0.124328 255 100 100
-0.151840 -0.195825 0.179522 255 100 100
0.167311 0.012215 -0.189667 255 100 100
-0.139796 -0.014830 0.328406 255 100 100
-0.052201 -0.065708 0.102814 255 100 100
0.366617 -0.054124 0.241261 255 100 100
-0.254488 -0.131360 0.036575 255 100 100
0.311024 0.130163 -0.395719 255 100 100
-0.297986 0.279948 0.391609 255 100 100
-0.302667 0.092602 0.117235 255 100 100
-0.344765 -0.352599 -0.161373 255 100 100
0.647793 -0.404415 0.223543 255 100 100
-0.450294 -0.132701 -0.049377 255 100 100
-0.512309 -0.037933 -0.027920 255 100 100
-0.170352 -0.163971 -0.200962 255 100 100
0.409131 -0.166522 0.438176 255 100 100
0.229197 0.156142 0.186374 255 100 100
-0.198864 -0.110461 -0.400805 255 100 100
-0.132132 -0.027690 -0.324341 255 100 100
-0.150406 0.326524 -0.077488 255 100 100
-0.095457 -0.071316 0.114020 255 100 100
0.117166 -0.008231 -0.514842 255 100 100
0.131211 -0.105844 0.395928 255 100 100
0.241715 0.211104 0.112948 255 100 100
0.091955 0.141588 0.086216 255 100 100
-0.442944 -0.137143 -0.635170 255 100 100
-0.080168 0.161846 0.032948 255 100 100
-0.094450 0.155242 -0.056326 255 100 100
0.259069 0.052094 -0.327734 255 100 100
0.033209 0.182511 -0.311314 255 100 100
-0.342409 0.176550 0.084420 255 100 100
0.298083 -0.060314 -0.108334 255 100 100
0.367913 0.071216 0.070050 255 100 100
0.116336 0.032371 0.048106 255 100 100
-0.081805 0.062182 -0.057297 255 100 100
0.047825 0.036671 0.084514 255 100 100
0.092946 0.144018 0.252354 255 100 100
0.351215 -0.250086 0.409520 255 100 100
-0.102594 -0.213382 0.316808 255 100 100
-0.282276 -0.255153 0.254098 255 100 100
0.301750 0.068206 -0.030776 255 100 100
-0.392941 -0.069084 0.405820 255 100 100
-0.441399 -0.301789 0.082700 255 100 100
0.520771 0.355718 0.186168 255 100 100
0.043995 0.348625 -0.235196 255 100 100
0.244533 0.200586 0.299795 255 100 100
0.046395 -0.071018 -0.290868 255 100 100
-0.272620 -0.405913 0.379409 255 100 100
0.436134 0.104286 -0.204541 255 100 100
-0.128476 -0.090970 0.108539 255 100 100
-0.054257 0.041333 -0.099021 255 100 100
-0.171643 -0.123646 -0.024300 255 100 100
0.053853 -0.209820 -0.496970 255 100 100
-0.266939 -0.000153 0.179803 255 100 100
0.081328 0.023544 0.138962 255 100 100
0.173122 0.334574 -0.394665 255 100 100
0.107998 0.152004 0.099255 255 100 100
-0.043561 0.045763 0.253841 255 100 100
-0.122482 -0.084348 -0.141583 255 100 100
-0.201589 0.033212 0.095836 255 100 100
-0.115207 -0.079292 -0.280956 255 100 100
-0.361379 -0.139215 -0.059449 255 100 100
-0.074934 -0.012215 -0.104005 255 100 100
-0.192828 -0.115824 -0.021084 255 100 100
-0.470277 -0.069503 -0.279840 255 100 100
-0.042126 0.212949 0.087768 255 100 100
0.213268 -0.007702 -0.002063 255 100 100
-0.363507 0.233534 0.290210 255 100 100
-0.103889 -0.075238 0.094718 255 100 100
-0.282688 -0.207547 -0.328478 255 100 100
0.317789 -0.051068 -0.242213 255 100 100
0.164567 -0.126738 0.250310 255 100 100
0.025539 0.097277 0.142421 255 100 100
0.186485 -0.076673 0.178725 255 100 100
-0.369233 -0.245083 0.144648 255 100 100
-0.102272 0.120110 -0.262617 255 100 100
-0.205954 -0.148508 0.000375 255 100 100
-0.065599 0.391989 -0.338328 255 100 100
-0.211575 0.199145 0.044503 255 100 100
0.200853 0.188339 -0.088104 255 100 100
-0.130283 -0.933997 0.332681 255 100 100
-0.478030 -0.302409 0.358199 255 100 100
-0.379016 -0.459443 0.296007 255 100 100
-0.042393 0.094475 -0.151555 255 100 100
0.572730 -0.069590 0.086972 255 100 100
-0.113485 -0.468300 -0.538723 255 100 100
-0.122507 -0.065663 -0.002966 255 100 100
-0.369312 -0.538904 0.209079 255 100 100
-0.029325 0.086231 -0.136567 255 100 100
0.161437 0.063028 0.358042 255 100 100
0.064760 0.006265 -0.220980 255 100 100
-0.015592 0.337655 0.409338 255 100 100
-0.288909 -0.120823 0.327754 255 100 100
0.421231 0.275929 0.018186 255 100 100
0.276044 -0.049223 0.052029 255 100 100
0.322583 -0.026592 0.122888 255 100 100
-0.038181 0.017679 0.131018 255 100 100
-0.021719 0.179721 0.315336 255 100 100
-0.320847 0.068513 0.292385 255 100 100
0.074409 -0.075097 -0.205666 255 100 100
0.052845 -0.022210 0.210622 255 100 100
-0.036781 0.053262 -0.069051 255 100 100
-0.273208 -0.292235 0.052791 255 100 100
-0.416155 0.038277 0.278701 255 100 100
-0.056963 0.080843 -0.238829 255 100 100
-0.153650 -0.128628 -0.194801 255 100 100
0.114678 -0.031434 -0.283843 255 100 100
0.247879 0.061536 0.014999 255 100 100
-0.021208 0.258763 -0.515058 255 100 100
0.046050 -0.130385 0.387020 255 100 100
0.047787 -0.178589 0.319272 255 100 100
-0.085200 0.009053 -0.063113 255 100 100
-0.266772 -0.052448 -0.416000 255 100 100
-0.230478 -0.117780 -0.080791 255 100 100
-0.101910 0.038779 0.292634 255 100 100
0.197890 -0.171839 0.568672 255 100 100
-0.234458 -0.006920 -0.143980 255 100 100
-0.034985 0.038350 -0.008158 255 100 100
0.152490 0.419511 -0.076438 255 100 100
-0.050170 0.137688 -0.173327 255 100 100
-0.138353 -0.192820 -0.350828 255 100 100
-0.047632 -0.180080 0.357925 255 100 100
-0.198981 -0.130940 0.524208 255 100 100
0.053441 0.019037 -0.172031 255 100 100
0.033905 0.286101 -0.340919 255 100 100
-0.174585 0.139574 -0.760330 255 100 100
0.026359 -0.041228 0.071395 255 100 100
0.007714 0.103646 0.328888 255 100 100
0.052138 -0.239798 0.399044 255 100 100
-0.025523 0.071719 0.016172 255 100 100
-0.316288 0.068680 -0.222748 255 100 100
0.016521 0.182299 0.326623 255 100 100
0.063006 -0.083644 0.180085 255 100 100
-0.187613 -0.074049 0.181475 255 100 100
-0.009139 0.188321 -0.204311 255 100 100
-0.210440 -0.001846 -0.044777 255 100 100
-0.166448 -0.203219 -0.186911 255 100 100
-0.131247 -0.213444 -0.288123 255 100 100
0.153628 0.054998 -0.153842 255 100 100
-0.118262 -0.066903 -0.175078 255 100 100
-0.017982 -0.111526 -0.337648 255 100 100
0.009206 0.125122 0.143456 255 100 100
-0.451613 0.200746 0.374620 255 100 100
-0.187462 0.063943 0.538386 255 100 100
-0.398207 -0.095940 -0.154539 255 100 100
-0.167190 0.173005 0.068592 255 100 100
-0.112683 -0.026772 -0.056068 255 100 100
-0.232489 -0.185736 0.300929 255 100 100
0.231598 0.283458 -0.106695 255 100 100
-0.128250 0.068418 -0.033365 255 100 100
-0.327083 -0.373784 0.310900 255 100 100
-0.479863 -0.627328 -0.127567 255 100 100
0.213229 0.116821 -0.102039 255 100 100
-0.183254 0.033864 0.058539 255 100 100
-0.298049 -0.094785 -0.060789 255 100 100
0.240960 -0.038164 -0.214833 255 100 100
0.189856 -0.006263 -0.296543 255 100 100
-0.220911 -0.055008 0.398607 255 100 100
-0.398574 -0.115319 0.340680 255 100 100
0.059473 0.194251 -0.450957 255 100 100
-0.152747 -0.235595 0.229779 255 100 100
-0.028040 -0.011940 -0.063969 255 100 100
0.101244 -0.102122 -0.294692 255 100 100
-0.134518 0.166255 -0.138496 255 100 100
-0.293770 -0.182959 -0.194775 255 100 100
-0.165712 -0.112688 0.254760 255 100 100
0.353406 0.196352 0.047091 255 100 100
0.531472 -0.695140 0.361506 255 100 100
-0.204171 -0.462569 0.359659 255 100 100
-0.096965 -0.030713 -0.016938 255 100 100
-0.002233 0.010986 -0.097747 255 100 100
-0.382562 -0.124508 -0.422878 255 100 100
-0.251121 0.028990 0.298899 255 100 100
-0.059816 0.327386 0.046634 255 100 100
0.444991 -0.316754 -0.467112 255 100 100
-0.315547 0.121215 -0.021058 255 100 100
-0.177228 0.152507 0.187656 255 100 100
0.263468 -0.078499 -0.296082 255 100 100
-0.251421 -0.149713 -0.244029 255 100 100
-0.265595 -0.203417 0.190430 255 100 100
0.171482 0.035037 -0.132873 255 100 100
-0.246515 0.094556 -0.014574 255 100 100
0.574687 -0.118172 -0.051275 255 100 100
0.146602 -0.131037 -0.376386 255 100 100
0.116412 0.042766 0.153936 255 100 100
-0.326404 -0.054201 -0.250725 255 100 100
0.021300 -0.040879 -0.373297 255 100 100
0.424087 -0.036837 -0.027126 255 100 100
0.262319 0.063477 -0.129442 255 100 100
0.173083 0.075069 0.011042 255 100 100
-0.149903 -0.085630 -0.051588 255 100 100
0.462503 0.141886 0.050082 255 100 100
-0.176365 -0.016058 -0.069670 255 100 100
-0.235884 0.070419 0.227929 255 100 100
0.072262 0.520946 0.180018 255 100 100
-0.183104 -0.017138 -0.238638 255 100 100
-0.049162 -0.079555 0.355023 255 100 100
0.155115 -0.031181 -0.219723 255 100 100
-0.146137 0.090565 0.054792 255 100 100
0.187226 0.091008 0.141074 255 100 100
-0.048214 0.093437 0.115906 255 100 100
-0.040609 -0.060461 0.072345 255 100 100
0.321130 0.198681 0.409685 255 100 100
0.136125 -0.036916 -0.246565 255 100 100
-0.233453 -0.108306 -0.311360 255 100 100
0.107085 0.037783 -0.280773 255 100 100
-0.240557 -0.267377 -0.238958 255 100 100
0.154921 0.333006 -0.004164 255 100 100
-0.014417 -0.168122 -0.315604 255 100 100
0.309670 0.167554 0.062494 255 100 100
-0.024052 0.112929 -0.346812 255 100 100
0.229973 -0.179920 -0.444922 255 100 100
-0.194436 -0.307857 0.335895 255 100 100
0.279535 0.035873 0.174571 255 100 100
-0.270137 -0.201463 0.186064 255 100 100
-0.141450 0.017167 -0.040614 255 100 100
-0.067275 -0.101049 -0.187861 255 100 100
-0.010443 -0.107852 0.321243 255 100 100
-0.494914 -0.364109 -0.027948 255 100 100
-0.172948 -0.161044 -0.090963 255 100 100
0.189266 0.044881 0.118755 255 100 100
-0.241311 -0.248300 -0.042207 255 100 100
-0.141914 0.177996 -0.119604 255 100 100
-0.229712 0.137772 -0.003154 255 100 100
0.196002 0.176529 -0.116030 255 100 100
0.227850 -0.168188 0.292725 255 100 100
-0.133103 0.172329 -0.076635 255 100 100
0.075119 -0.071906 0.199493 255 100 100
0.012353 -0.192258 0.358106 255 100 100
0.366068 0.271539 0.211288 255 100 100
-0.162817 0.060592 0.297974 255 100 100
0.030010 -0.096424 0.410381 255 100 100
0.083931 -0.029530 0.044090 255 100 100
-0.040449 0.276692 -0.242236 255 100 100
0.243434 -0.080677 0.185764 255 100 100
-0.268490 -0.360598 0.167570 255 100 100
0.476802 0.008715 -0.398037 255 100 100
0.358468 0.079254 0.173103 255 100 100
0.078536 -0.198668 0.447283 255 100 100
0.064156 0.003527 0.338307 255 100 100
-0.016658 0.102244 -0.072648 255 100 100
0.385505 0.017857 -0.164989 255 100 100
0.061521 0.067284 -0.093292 255 100 100
0.197424 0.290899 -0.017689 255 100 100
-0.038514 -0.075605 0.031614 255 100 100
0.484156 0.049278 0.104747 255 100 100
-0.584404 0.022943 0.035098 255 100 100
-0.138141 -0.104349 0.127855 255 100 100
-0.258242 -0.200723 -0.481210 255 100 100
0.082700 0.171692 0.142124 255 100 100
0.075186 0.028760 -0.199114 255 100 100
-0.083280 0.180779 -0.372023 255 100 100
0.577151 -0.060291 -0.051209 255 100 100
0.221296 -0.155708 -0.361425 255 100 100
0.194204 -0.152733 0.285011 255 100 100
0.366377 0.091279 0.109455 255 100 100
0.024399 0.232443 0.133614 255 100 100
-0.078901 0.259656 -0.211863 255 100 100
-0.228305 -0.121836 -0.251527 255 100 100
-0.383468 0.428800 -0.109081 255 100 100
0.119411 -0.039882 -0.247041 255 100 100
-0.326057 -0.140561 0.044758 255 100 100
-0.112331 0.502509 -0.203413 255 100 100
-0.054682 -0.019460 -0.243292 255 100 100
0.215349 -0.056576 0.075157 255 100 100
0.349789 0.063003 0.036255 255 100 100
-0.013355 -0.064271 -0.463314 255 100 100
-0.266869 0.287403 -0.225997 255 100 100
0.198977 -0.162000 0.315464 255 100 100
0.253201 -0.174026 0.290911 255 100 100
-0.160527 -0.036765 0.272429 255 100 100
-0.373434 -0.578038 -0.536132 255 100 100
-0.081347 -0.077711 0.116703 255 100 100
-0.102747 0.129443 0.173979 255 100 100
-0.389021 -0.550546 0.328629 255 100 100
0.047890 -0.077583 0.361560 255 100 100
0.321203 0.199770 -0.139500 255 100 100
-0.170654 0.234112 -0.480456 255 100 100
-0.284635 0.135150 -0.130020 255 100 100
-0.013826 0.123782 0.053849 255 100 100
0.123222 -0.041920 -0.078687 255 100 100
-0.345742 -0.015698 -0.348145 255 100 100
0.052171 0.139870 0.062721 255 100 100
-0.251937 -0.066850 -0.049171 255 100 100
-0.243012 -0.083026 0.183020 255 100 100
0.285413 -0.027325 0.460826 255 100 100
0.699458 0.252890 0.186473 255 100 100
-0.091370 0.027087 0.102473 255 100 100
-0.078896 -0.086877 0.008364 255 100 100
-0.264867 -0.248534 -0.037834 255 100 100
0.078795 -0.005211 -0.279404 255 100 100
-0.206319 0.071649 -0.041734 255 100 100
-0.226220 -0.236851 -0.483206 255 100 100
0.059035 -0.037959 0.451843 255 100 100
-0.068947 -0.171266 0.184641 255 100 100
-0.493187 -0.266185 0.036664 255 100 100
0.416349 0.109664 0.103846 255 100 100
0.284792 0.301965 0.331912 255 100 100
0.067205 -0.036039 -0.055266 255 100 100
0.019709 0.284714 -0.288820 255 100 100
-0.212276 -0.271903 0.306314 255 100 100
-0.253412 -0.093039 0.030986 255 100 100
-0.003617 0.011206 0.392085 255 100 100
0.196163 0.084860 0.496068 255 100 100
0.107537 0.116046 -0.297366 255 100 100
-0.202947 -0.179709 -0.223452 255 100 100
0.207250 -0.065483 0.246403 255 100 100
0.219046 0.073726 -0.015121 255 100 100
-0.221698 0.342878 -0.117254 255 100 100
0.247086 0.019272 -0.223073 255 100 100
0.026761 0.064474 -0.261562 255 100 100
0.293881 0.217137 0.014926 255 100 100
-0.561077 0.102618 0.049583 255 100 100
-0.080687 0.047619 0.002594 255 100 100
0.128630 0.028797 0.245130 255 100 100
0.493528 0.201314 -0.206392 255 100 100
0.034835 -0.047664 0.141636 255 100 100
-0.098180 0.046658 -0.125520 255 100 100
0.223071 0.014521 -0.065071 255 100 100
-0.143247 -0.179298 -0.689530 255 100 100
-0.175065 0.032106 -0.105639 255 100 100
0.085100 0.122192 0.185895 255 100 100
0.030922 0.051550 0.080872 255 100 100
-0.104767 -0.148689 0.181860 255 100 100
0.141162 0.171021 0.114629 255 100 100
-0.004488 0.094356 -0.271322 255 100 100
-0.147271 0.214681 0.129811 255 100 100
-0.202822 0.107921 -0.007158 255 100 100
-0.056033 0.004634 -0.083471 255 100 100
-0.007261 0.326605 -0.326960 255 100 100
0.113519 -0.003357 -0.066870 255 100 100
-0.307582 -0.044253 0.384531 255 100 100
0.034060 0.017548 0.135525 255 100 100
0.168479 -0.024529 0.174884 255 100 100
0.221555 -0.007005 -0.091026 255 100 100
0.019363 0.580637 0.236286 255 100 100
-0.218307 0.201649 0.143135 255 100 100
-0.238902 0.088357 -0.484700 255 100 100
0.245958 0.092869 0.101533 255 100 100
-0.126197 0.286504 0.012079 255 100 100
-0.185153 -0.076182 -0.290861 255 100 100
0.143714 0.238876 0.023170 255 100 100
-0.039098 0.017629 0.215223 255 100 100
0.590782 -0.390745 0.237047 255 100 100
0.179091 0.012678 0.046966 255 100 100
-0.341711 0.328776 -0.873886 255 100 100
0.093656 -0.001167 -0.080771 255 100 100
-0.102202 0.178883 0.132357 255 100 100
0.888033 -0.067370 -0.050904 255 100 100
-0.281307 -0.504587 0.223856 255 100 100
0.317908 0.122457 -0.193593 255 100 100
0.110107 0.278511 0.236907 255 100 100
0.231783 0.021872 -0.101168 255 100 100
0.164462 -0.133882 -0.614393 255 100 100
-0.233973 -0.011107 0.119665 255 100 100
0.298749 0.145693 -0.007214 255 100 100
0.474298 -0.071383 -0.431120 255 100 100
0.188813 -0.040364 -0.130760 255 100 100
0.134849 0.013395 -0.311916 255 100 100
-0.080217 0.084215 -0.095176 255 100 100
0.266946 -0.030553 -0.005022 255 100 100
-0.446197 -0.063030 -0.188556 255 100 100
0.426626 0.346607 -0.153007 255 100 100
-0.303301 0.158678 -0.071399 255 100 100
-0.268887 -0.223294 -0.130074 255 100 100
-0.157834 0.041617 -0.245472 255 100 100
-0.045187 0.014978 -0.240419 255 100 100
-0.261149 0.099112 -0.266102 255 100 100
-0.178164 -0.115773 -0.135718 255 100 100
0.138110 0.071700 -0.000682 255 100 100
-0.153326 0.030379 0.129966 255 100 100
-0.028932 -0.050284 -0.074907 255 100 100
-0.072663 -0.304066 0.403716 255 100 100
0.046209 -0.034845 0.223425 255 100 100
-0.114226 0.013204 -0.238844 255 100 100
-0.263132 -0.251213 0.281175 255 100 100
-0.074369 0.115438 -0.168034 255 100 100
0.353590 -0.049122 -0.056644 255 100 100
0.221071 0.019291 -0.012876 255 100 100
0.141908 0.065630 0.088189 255 100 100
-0.006651 -0.032614 0.052303 255 100 100
-0.441139 -0.109146 -0.213982 255 100 100
0.309113 0.038393 -0.024431 255 100 100
-0.089636 0.039626 -0.093835 255 100 100
0.255692 -0.229273 0.359742 255 100 100
-0.472449 -0.593379 -0.113642 255 100 100
0.160789 0.005805 0.346172 255 100 100
0.116451 0.041825 0.152119 255 100 100
0.192877 -0.006122 -0.353194 255 100 100
0.112438 0.031984 0.236882 255 100 100
0.206576 0.224484 -0.240206 255 100 100
-0.132620 -0.078208 -0.354293 255 100 100
0.095635 0.189144 0.191791 255 100 100
-0.349397 -0.537841 0.105102 255 100 100
-0.194422 -0.124790 0.248380 255 100 100
-0.053573 -0.080112 -0.056485 255 100 100
-0.286572 0.178901 -0.397572 255 100 100
-0.050222 0.095824 0.152283 255 100 100
-0.051726 0.088779 0.142727 255 100 100
0.054824 0.046594 0.201755 255 100 100
0.144860 -0.019790 -0.263972 255 100 100
-0.262845 -0.332112 -0.325341 255 100 100
-0.086690 -0.130799 0.270103 255 100 100
-0.339185 -0.340083 0.172027 255 100 100
-0.112576 0.002373 0.184850 255 100 100
0.169012 0.168887 -0.170175 255 100 100
-0.102757 0.341305 -0.139765 255 100 100
0.015329 0.166048 0.184409 255 100 100
0.121751 0.168884 -0.306619 255 100 100
0.157257 0.114855 -0.171496 255 100 100
-0.436400 -0.088769 0.398395 255 100 100
0.648525 -0.037908 -0.105296 255 100 100
-0.202100 -0.117777 -0.258996 255 100 100
-0.165069 0.193967 -0.196636 255 100 100
0.379922 -0.061922 -0.199361 255 100 100
0.459975 0.096814 -0.014612 255 100 100
0.109158 0.074512 -0.054855 255 100 100
0.475319 0.064799 -0.152313 255 100 100
-0.255027 0.085678 0.015928 255 100 100
0.026042 -0.065843 0.202413 255 100 100
0.083828 -0.044854 0.160462 255 100 100
-0.176381 -0.106972 0.433992 255 100 100
-0.269197 -0.305846 -0.176856 255 100 100
0.258620 -0.286768 -0.501012 255 100 100
0.073843 0.033340 0.316556 255 100 100
-0.018255 0.189309 -0.243994 255 100 100
-0.296229 -0.117188 0.265125 255 100 100
0.009143 0.051892 -0.401145 255 100 100
-0.184689 -0.057912 0.039991 255 100 100
0.088758 -0.056664 0.008924 255 100 100
-0.157870 -0.053359 -0.149463 255 100 100
0.356841 -0.015796 -0.066881 255 100 100
0.003903 -0.069651 -0.213880 255 100 100
-0.323524 0.017984 0.261226 255 100 100
-0.115927 -0.068882 -0.459845 255 100 100
0.133664 0.269185 -0.391844 255 100 100
0.155546 0.406751 -0.239501 255 100 100
0.210740 -0.086099 -0.389187 255 100 100
0.213533 0.013855 0.108343 255 100 100
-0.249947 -0.004202 0.239652 255 100 100
0.125569 -0.056911 -0.149679 255 100 100
-0.106579 0.212589 -0.086410 255 100 100
0.136541 -0.073774 0.240891 255 100 100
0.302681 0.019681 0.111301 255 100 100
0.003905 -0.320034 0.433603 255 100 100
-0.037218 0.238888 0.028370 255 100 100
-0.299456 -0.432903 -0.309300 255 100 100
-0.259530 0.146149 0.141157 255 100 100
-0.269670 0.086569 0.069022 255 100 100
-0.024458 0.379513 -0.245548 255 100 100
0.043273 -0.096556 -0.456097 255 100 100
-0.111355 -0.177046 0.383931 255 100 100
-0.275386 0.050021 -0.188466 255 100 100
0.160540 -0.089873 -0.450936 255 100 100
-0.137460 -0.023535 0.023385 255 100 100
-0.128441 -0.142087 -0.018331 255 100 100
-0.119761 0.005152 0.058895 255 100 100
-0.252505 -0.054245 0.070417 255 100 100
-0.298576 -0.162900 -0.089486 255 100 100
0.076865 0.396494 -0.072348 255 100 100
-0.195842 -0.124609 0.174098 255 100 100
-0.120585 -0.016086 -0.385930 255 100 100
-0.153454 -0.141481 0.002408 255 100 100
-0.326554 0.102435 -0.433057 255 100 100
-0.092258 -0.040900 0.466113 255 100 100
0.058398 0.136947 -0.016410 255 100 100
-0.071240 0.591914 -0.048000 255 100 100
0.171735 -0.034209 0.166255 255 100 100
-0.142120 0.263667 0.157423 255 100 100
0.003897 -0.089683 0.234977 255 100 100
-0.045245 0.043179 -0.273442 255 100 100
0.173843 -0.381311 -0.660003 255 100 100
-0.254737 -0.068783 0.260696 255 100 100
-0.125507 -0.321142 0.357781 255 100 100
0.289039 0.209084 -0.059625 255 100 100
0.041967 0.038951 -0.443672 255 100 100
0.075419 0.292261 -0.035521 255 100 100
-0.066471 0.021226 -0.313136 255 100 100
0.044838 0.323869 0.103271 255 100 100
0.165339 -0.061294 0.075270 255 100 100
-0.202817 0.142784 -0.140112 255 100 100
0.127350 0.176043 -0.105920 255 100 100
-0.201924 0.140024 -0.178269 255 100 100
-0.013039 0.178334 -0.227856 255 100 100
-0.161591 0.060384 0.073370 255 100 100
-0.215863 -0.294992 0.264349 255 100 100
0.283373 0.073366 -0.035177 255 100 100
-0.073568 -0.117790 -0.117309 255 100 100
0.252889 -0.044190 0.095321 255 100 100
-0.047452 -0.105456 -0.122428 255 100 100
0.249319 -0.079690 0.154046 255 100 100
0.239267 0.031886 0.347581 255 100 100
-0.203558 -0.016422 0.251021 255 100 100
0.120326 -0.145777 0.257759 255 100 100
0.101727 0.099801 -0.173200 255 100 100
0.248428 -0.058599 0.136257 255 100 100
-0.114044 0.121480 -0.212427 255 100 100
-0.031816 0.191026 0.076831 255 100 100
0.276244 0.029415 -0.248888 255 100 100
0.218173 -0.028156 -0.047091 255 100 100
0.080231 0.273394 -0.191105 255 100 100
-0.065129 -0.073482 -0.174922 255 100 100
0.091230 -0.104435 0.265684 255 100 100
-0.004620 -0.283221 0.747454 255 100 100
0.107016 0.051805 -0.295520 255 100 100
-0.383587 -0.044088 0.045064 255 100 100
0.151360 -0.012776 0.039038 255 100 100
-0.152175 -0.132358 0.252408 255 100 100
-0.170943 -0.266788 -0.375924 255 100 100
0.158442 0.200030 0.027797 255 100 100
0.400852 0.125761 0.355899 255 100 100
0.057393 -0.019587 -0.045134 255 100 100
0.500021 -0.127953 0.459728 255 100 100
-0.231974 0.021465 -0.399543 255 100 100
0.300205 0.140081 0.021919 255 100 100
0.126523 -0.139372 0.301329 255 100 100
0.168775 -0.055323 -0.183050 255 100 100
0.377279 -0.075224 0.138945 255 100 100
0.002169 0.056120 0.133349 255 100 100
0.006391 -0.377341 0.587888 255 100 100
-0.225514 -0.008566 -0.165395 255 100 100
-0.182704 -0.146674 -0.073572 255 100 100
-0.029184 -0.093744 0.028160 255 100 100
-0.613992 -0.089958 -0.089766 255 100 100
-0.062406 -0.094653 0.441058 255 100 100
0.109338 0.044047 0.291147 255 100 100
-0.147521 0.306149 -0.252770 255 100 100
0.109242 -0.017664 0.272658 255 100 100
-0.562146 -0.202101 -0.031478 255 100 100
-0.100448 -0.072325 -0.311723 255 100 100
-0.190045 0.095226 0.144070 255 100 100
-0.195899 -0.094264 -0.282497 255 100 100
-0.115144 0.015716 -0.080778 255 100 100
0.056784 -0.151568 -0.334435 255 100 100
0.259134 0.210973 -0.094183 255 100 100
-0.409178 0.025442 -0.141533 255 100 100
-0.261312 -0.060769 0.330519 255 100 100
-0.004763 0.017645 0.172443 255 100 100
-0.241964 0.071935 -0.076304 255 100 100
0.195990 0.349768 -0.040909 255 100 100
-0.212409 0.145823 0.178579 255 100 100
-0.113437 0.286834 -0.098141 255 100 100
-0.234269 -0.048556 0.285931 255 100 100
-0.157646 -0.043886 -0.268383 255 100 100
0.246554 0.100093 0.127658 255 100 100
0.183413 0.028763 0.105136 255 100 100
-0.258053 -0.381068 -0.341609 255 100 100
0.414270 0.027374 -0.062501 255 100 100
0.136261 0.435062 0.048378 255 100 100
-0.257235 -0.274964 -0.284899 255 100 100
-0.111204 -0.104416 0.237378 255 100 100
-0.099269 0.139378 0.118684 255 100 100
0.253911 -0.124400 -0.513954 255 100 100
-0.273485 -0.294131 -0.038042 255 100 100
-0.138070 0.081084 0.032882 255 100 100
0.203417 0.181016 -0.157881 255 100 100
-0.024028 0.211923 0.066416 255 100 100
-0.292191 -0.020163 -0.072177 255 100 100
-0.062767 0.064126 -0.366571 255 100 100
0.200676 -0.026623 -0.096205 255 100 100
0.367151 -0.055587 0.547740 255 100 100
0.082447 0.081831 0.173914 255 100 100
0.075095 -0.027191 0.345870 255 100 100
0.024950 -0.083801 0.091821 255 100 100
-0.215916 -0.104060 0.004771 255 100 100
0.071699 -0.040501 -0.075871 255 100 100
0.002672 0.050855 0.525529 255 100 100
0.164119 0.354751 -0.439371 255 100 100
-0.316971 -0.227202 0.237354 255 100 100
-0.026893 -0.017700 0.030819 255 100 100
-0.062638 0.080022 0.268468 255 100 100
-0.576089 -0.261377 0.131038 255 100 100
-0.085874 -0.074687 -0.127679 255 100 100
0.164599 0.021670 -0.248749 255 100 100
-0.045745 0.024310 -0.131087 255 100 100
-0.155790 -0.138593 -0.028682 255 100 100
0.253318 0.031082 -0.196077 255 100 100
-0.397280 -0.103405 0.033514 255 100 100
-0.139894 0.096250 0.359448 255 100 100
0.098734 -0.004144 0.463977 255 100 100
0.127078 -0.022013 0.234840 255 100 100
0.106001 0.073996 0.116836 255 100 100
-0.285920 0.060587 0.153965 255 100 100
-0.288089 -0.224356 0.115009 255 100 100
0.027321 -0.018076 -0.472508 255 100 100
-0.228722 0.336147 0.038320 255 100 100
0.069184 0.092705 0.099399 255 100 100
-0.308902 -0.320397 -0.035424 255 100 100
0.047785 0.306461 0.371367 255 100 100
-0.093823 -0.116091 -0.100788 255 100 100
0.289329 0.196795 0.262123 255 100 100
-0.121327 -0.273135 0.380819 255 100 100
0.335269 -0.043359 0.202746 255 100 100
0.027711 0.210530 -0.432242 255 100 100
0.570498 0.036423 0.111233 255 100 100
0.114331 0.486057 -0.048047 255 100 100
-0.394619 -0.523027 -0.420576 255 100 100
0.297123 -0.004970 -0.066624 255 100 100
0.410580 -0.277085 0.342406 255 100 100
-0.416657 -0.036655 0.657605 255 100 100
0.088565 0.023052 -0.133890 255 100 100
0.275907 0.037444 -0.022935 255 100 100
0.246419 -0.051345 -0.192571 255 100 100
0.281020 -0.074617 0.167756 255 100 100
-0.140771 -0.018752 -0.134895 255 100 100
-0.277684 -0.031010 0.090381 255 100 100
0.652559 -0.416947 -0.267118 255 100 100
0.114407 0.223599 -0.157097 255 100 100
-0.313964 -0.026999 -0.318858 255 100 100
-0.146095 0.018399 -0.124451 255 100 100
0.096525 -0.034091 0.114775 255 100 100
0.189254 0.065444 -0.332877 255 100 100
0.258405 0.016764 0.058241 255 100 100
0.135257 -0.064576 0.095541 255 100 100
-0.141063 -0.141083 0.074187 255 100 100
-0.224938 -0.133872 -0.445688 255 100 100
-0.210040 -0.102953 0.193324 255 100 100
-0.136871 0.487859 -0.404101 255 100 100
-0.268964 0.101288 -0.200449 255 100 100
-0.102765 -0.078077 -0.050994 255 100 100
-0.169219 -0.084608 -0.016318 255 100 100
0.182618 -0.052425 -0.140022 255 100 100
-0.001932 0.125546 -0.350059 255 100 100
0.165802 0.291429 0.181013 255 100 100
0.213116 0.078367 -0.650821 255 100 100
-0.046585 0.045108 -0.010201 255 100 100
-0.151253 -0.086885 -0.387918 255 100 100
0.085700 -0.073634 -0.245073 255 100 100
-0.094753 -0.223117 0.359793 255 100 100
-0.034673 0.060386 -0.406797 255 100 100
-0.304837 -0.214853 -0.071240 255 100 100
0.008835 -0.098240 -0.526490 255 100 100
0.109605 -0.022120 -0.011756 255 100 100
-0.161211 0.005411 0.145821 255 100 100
0.148672 0.123094 -0.085707 255 100 100
-0.188540 0.086185 -0.151442 255 100 100
0.054761 0.056036 0.330120 255 100 100
-0.122568 0.078987 -0.155332 255 100 100
0.099463 0.504157 0.277574 255 100 100
0.050899 0.066591 -0.537415 255 100 100
-0.016725 -0.065207 0.199123 255 100 100
-0.166782 0.043266 0.176207 255 100 100
-0.304769 0.024197 -0.110275 255 100 100
-0.186800 -0.188495 0.063642 255 100 100
-0.390283 0.080187 -0.007421 255 100 100
0.146441 -0.184714 0.482657 255 100 100
0.105720 -0.021669 0.061793 255 100 100
-0.013138 -0.384913 0.429107 255 100 100
-0.059745 -0.124647 0.351930 255 100 100
-0.144173 -0.144093 -0.425119 255 100 100
0.047253 -0.055288 -0.266246 255 100 100
0.222106 -0.102441 0.285417 255 100 100
0.290656 -0.134741 0.361344 255 100 100
0.453623 -0.094503 -0.317131 255 100 100
-0.112412 -0.122615 0.024851 255 100 100
-0.504176 -0.201923 -0.154484 255 100 100
0.021507 -0.144785 0.228014 255 100 100
-0.081822 0.178778 -0.075224 255 100 100
-0.130480 -0.088751 -0.043573 255 100 100
0.367740 -0.177619 0.321118 255 100 100
-0.125998 0.038256 -0.063124 255 100 100
-0.060365 -0.127347 0.200235 255 100 100
-0.292157 -0.199996 0.103598 255 100 100
0.191032 0.004386 0.044086 255 100 100
0.423214 -0.001805 -0.075699 255 100 100
0.008451 0.112084 -0.043169 255 100 100
-0.109331 -0.008777 0.099546 255 100 100
0.351217 -0.031258 -0.063559 255 100 100
-0.044565 0.168553 0.421274 255 100 100
-0.219155 -0.053637 -0.095011 255 100 100
-0.192870 -0.078459 0.243333 255 100 100
-0.143969 -0.081184 -0.227083 255 100 100
0.290073 0.001044 -0.091394 255 100 100
-0.027149 0.005022 0.322559 255 100 100
-0.150099 -0.142250 0.043677 255 100 100
0.265560 -0.048243 -0.086213 255 100 100
-0.182536 -0.038209 -0.238424 255 100 100
0.244007 -0.030840 0.264292 255 100 100
0.106595 0.024509 0.084748 255 100 100
-0.104568 0.180301 0.113542 255 100 100
0.131716 -0.045683 -0.032730 255 100 100
-0.101205 -0.022572 -0.386017 255 100 100
0.236253 0.211688 0.035144 255 100 100
0.074457 -0.009690 -0.188133 255 100 100
0.240670 -0.058463 0.280605 255 100 100
0.000015 -0.026939 -0.158664 255 100 100
-0.401713 -0.219470 0.039986 255 100 100
0.269919 -0.018386 0.029308 255 100 100
-0.277298 -0.172297 -0.188391 255 100 100
0.450681 0.072416 -0.114537 255 100 100
-0.002982 -0.126977 -0.482680 255 100 100
0.066718 0.151384 0.116157 255 100 100
-0.059039 0.028090 -0.058948 255 100 100
0.175494 0.196451 0.379090 255 100 100
-0.099370 0.041250 -0.408828 255 100 100
0.068125 0.085867 -0.138820 255 100 100
0.198541 -0.095980 -0.373991 255 100 100
-0.041507 -0.043563 -0.147272 255 100 100
-0.314063 -0.286493 -0.254491 255 100 100
0.064459 -0.088131 -0.249054 255 100 100
0.483196 0.094576 -0.370711 255 100 100
-0.065088 0.054759 -0.124017 255 100 100
0.135994 0.055898 0.247004 255 100 100
0.267342 -0.066620 -0.296980 255 100 100
0.090267 -0.002011 -0.058662 255 100 100
0.189326 0.202960 -0.812038 255 100 100
-0.211591 -0.202217 -0.110453 255 100 100
0.458844 -0.089614 -0.051348 255 100 100
0.009165 -0.157723 0.400769 255 100 100
-0.256244 -0.120694 0.029710 255 100 100
0.048375 -0.004898 0.152394 255 100 100
0.247994 0.573116 -0.378515 255 100 100
-0.128128 -0.058616 -0.052723 255 100 100
-0.258587 -0.134966 -0.123346 255 100 100
-0.078925 -0.216587 0.430798 255 100 100
-0.324100 -0.200606 -0.247693 255 100 100
-0.082557 -0.073657 -0.190103 255 100 100
0.108082 0.000780 -0.004873 255 100 100
0.083225 0.191503 -0.084085 255 100 100
0.149473 0.005884 0.439964 255 100 100
0.124181 0.198548 -0.065803 255 100 100
-0.130251 0.180228 -0.185171 255 100 100
0.113783 0.062586 -0.205924 255 100 100
-0.383698 -0.215111 0.210504 255 100 100
-0.371945 -0.029543 -0.054228 255 100 100
-0.139957 0.062263 0.272398 255 100 100
0.419722 0.264975 -0.009165 255 100 100
-0.019264 0.109898 -0.183367 255 100 100
-0.178283 -0.181392 -0.005405 255 100 100
-0.174007 0.215240 0.250790 255 100 100
0.043945 -0.045336 -0.079597 255 100 100
0.168015 -0.044017 -0.155887 255 100 100
-0.014589 0.016297 -0.177181 255 100 100
0.144968 0.235335 0.132583 255 100 100
-0.173399 -0.194593 0.258957 255 100 100
0.108161 0.052208 0.181392 255 100 100
0.007853 0.267458 -0.319354 255 100 100
-0.287754 0.054288 0.098305 255 100 100
-0.250769 -0.284479 0.156563 255 100 100
0.099241 0.069674 0.165573 255 100 100
-0.241670 -0.024648 0.262791 255 100 100
-0.267562 -0.258920 0.198455 255 100 100
0.016316 -0.028815 -0.181359 255 100 100
-0.052393 0.053492 -0.163906 255 100 100
-0.000927 -0.020445 -0.184164 255 100 100
0.115879 0.191144 0.078273 255 100 100
0.071138 0.175833 -0.089528 255 100 100
0.228887 -0.061947 0.083579 255 100 100
-0.185376 -0.102964 -0.592611 255 100 100
-0.169389 -0.233749 -0.253745 255 100 100
-0.491971 -0.190947 0.109888 255 100 100
-0.144118 0.161754 -0.109016 255 100 100
-0.497277 0.005089 -0.237335 255 100 100
0.165005 0.121165 -0.363581 255 100 100
0.043130 0.034978 -0.285128 255 100 100
0.338021 0.076381 -0.089774 255 100 100
0.318896 -0.221048 -0.432276 255 100 100
0.192855 0.115092 -0.061393 255 100 100
0.081782 0.048808 -0.344723 255 100 100
-0.343392 -0.150969 0.228142 255 100 100
0.273912 0.079894 0.094371 255 100 100
-0.157300 -0.129135 0.092021 255 100 100
-0.012179 -0.443949 0.493886 255 100 100
0.365695 0.237708 -0.188501 255 100 100
0.034836 0.079616 0.206348 255 100 100
0.277052 0.025410 0.385388 255 100 100
0.146315 0.029603 -0.092397 255 100 100
0.063664 -0.051630 0.378520 255 100 100
0.069605 -0.038220 0.397901 255 100 100
0.152413 -0.113949 -0.322843 255 100 100
-0.315795 -0.151303 0.081589 255 100 100
0.247463 0.072427 -0.230913 255 100 100
0.294699 0.196816 -0.201894 255 100 100
0.209124 0.091509 0.085070 255 100 100
0.149573 0.170948 -0.121266 255 100 100
0.088426 -0.070594 -0.187982 255 100 100
-0.393970 0.076273 -0.094361 255 100 100
-0.159590 0.348006 -0.177462 255 100 100
0.417196 -0.105681 -0.339718 255 100 100
-0.000772 0.145229 0.134461 255 100 100
0.070008 0.103872 -0.162816 255 100 100
0.501607 0.011285 -0.232176 255 100 100
0.220603 0.313945 0.066607 255 100 100
0.039689 0.031589 -0.188276 255 100 100
0.187779 0.348071 -0.233650 255 100 100
0.038384 -0.086150 0.161620 255 100 100
0.539301 -0.240033 0.484053 255 100 100
0.401067 0.162031 -0.278375 255 100 100
-0.103339 -0.061160 0.490989 255 100 100
-0.214027 -0.079610 0.600543 255 100 100
0.354040 0.258672 0.001237 255 100 100
-0.162132 0.213744 -0.081654 255 100 100
0.060445 -0.029882 0.096104 255 100 100
0.135224 0.152667 -0.289382 255 100 100
0.063736 -0.045805 0.117686 255 100 100
0.047798 -0.246687 0.390437 255 100 100
-0.204596 -0.252299 0.219590 255 100 100
-0.315897 -0.146229 -0.006915 255 100 100
0.013786 0.020858 -0.236959 255 100 100
0.335592 -0.070970 0.368971 255 100 100
0.271786 0.017327 0.227410 255 100 100
-0.453821 -0.029882 -0.133210 255 100 100
-0.276155 -0.035933 -0.165182 255 100 100
0.134143 0.083274 0.482146 255 100 100
0.112333 0.004171 -0.529541 255 100 100
-0.368895 -0.002857 -0.221764 255 100 100
0.072727 0.113599 0.141347 255 100 100
-0.068897 0.082282 0.120304 255 100 100
0.148299 -0.083270 -0.338612 255 100 100
-0.175873 -0.110976 -0.316003 255 100 100
0.418897 0.237400 -0.143097 255 100 100
0.346844 -0.187934 0.460410 255 100 100
0.381407 -0.133672 -0.302491 255 100 100
-0.095522 -0.006949 -0.002438 255 100 100
0.267269 -0.052471 0.172255 255 100 100
0.059893 -0.073945 0.132482 255 100 100
-0.418222 -0.054389 0.052878 255 100 100
0.351210 -0.013209 0.351758 255 100 100
0.366284 -0.061404 0.257725 255 100 100
-0.113195 -0.025308 -0.279765 255 100 100
-0.188488 0.024088 0.186889 255 100 100
0.235402 -0.058788 -0.191742 255 100 100
0.501448 0.114726 -0.043576 255 100 100
-0.107524 -0.013702 0.248422 255 100 100
0.279231 0.016988 -0.083343 255 100 100
-0.022132 -0.096976 0.182155 255 100 100
0.298730 -0.040638 0.236446 255 100 100
0.064904 -0.032055 -0.048873 255 100 100
-0.147854 -0.099557 0.040748 255 100 100
-0.181872 -0.126133 -0.093482 255 100 100
0.240653 -0.029402 0.498608 255 100 100
0.210052 -0.005811 -0.152465 255 100 100
0.099904 -0.080326 0.115909 255 100 100
-0.061184 0.082896 -0.025147 255 100 100
0.381845 0.109256 0.020975 255 100 100
0.042372 0.031155 0.174041 255 100 100
-0.108469 0.198447 -0.298714 255 100 100
0.103276 0.050793 -0.128307 255 100 100
0.199996 0.143833 0.185804 255 100 100
0.200646 -0.075891 -0.197513 255 100 100
-0.169005 -0.050647 -0.211786 255 100 100
-0.166066 0.119850 -0.058597 255 100 100
0.005244 -0.054412 0.045168 255 100 100
0.202446 0.085899 -0.266288 255 100 100
-0.174120 -0.158361 0.056927 255 100 100
-0.089106 0.085881 0.375250 255 100 100
-0.167733 0.035716 0.247616 255 100 100
-0.054813 0.041197 -0.154471 255 100 100
-0.281938 -0.178066 0.298790 255 100 100
0.226298 0.062580 -0.381764 255 100 100
0.060073 -0.020379 0.082242 255 100 100
-0.151010 0.188433 0.147412 255 100 100
-0.124378 -0.150478 -0.316847 255 100 100
-0.180987 0.145136 -0.052497 255 100 100
0.312810 -0.052102 -0.449746 255 100 100
0.024060 -0.210985 0.301198 255 100 100
0.158087 0.101362 -0.130860 255 100 100
0.033515 0.187534 0.048297 255 100 100
0.103547 0.031488 0.104296 255 100 100
-0.265683 -0.091738 -0.094030 255 100 100
0.182191 0.156663 0.068076 255 100 100
0.224259 0.418151 -0.522575 255 100 100
-0.063724 -0.025740 -0.068507 255 100 100
-0.066369 0.083067 0.090919 255 100 100
0.271884 0.206455 0.366375 255 100 100
0.050716 0.147216 0.051749 255 100 100
-0.452359 -0.326348 -0.109886 255 100 100
-0.255625 -0.110710 0.149628 255 100 100
0.030878 -0.004553 -0.358929 255 100 100
-0.071557 0.125954 -0.056382 255 100 100
-0.194016 0.087112 0.101670 255 100 100
0.287468 -0.130798 -0.388678 255 100 100
-0.327954 0.056039 0.304891 255 100 100
0.076739 0.176493 0.162845 255 100 100
-0.242823 -0.115056 -0.376869 255 100 100
0.085801 -0.198825 0.410382 255 100 100
-0.069116 -0.009758 -0.152445 255 100 100
0.459048 -0.151021 0.344315 255 100 100
-0.272596 0.103577 0.293259 255 100 100
-0.058451 -0.119814 0.310616 255 100 100
-0.182003 -0.104508 0.103042 255 100 100
0.130291 0.010575 -0.417772 255 100 100
-0.289924 0.096165 -0.351410 255 100 100
-0.189867 -0.399980 -0.429685 255 100 100
0.110511 0.184524 -0.033372 255 100 100
-0.088514 -0.191330 -0.502612 255 100 100
0.284476 0.228858 0.280641 255 100 100
-0.365323 -0.164736 0.377402 255 100 100
0.031933 0.197875 0.172071 255 100 100
0.129340 -0.094192 0.603977 255 100 100
0.043058 0.244835 0.249823 255 100 100
-0.284659 0.053035 -0.165718 255 100 100
0.012044 0.387016 0.034236 255 100 100
-0.072823 0.032996 0.197509 255 100 100
-0.046462 -0.182942 -0.380133 255 100 100
-0.180815 0.015330 -0.325033 255 100 100
0.269500 0.025563 0.097084 255 100 100
0.727032 0.197183 -0.055290 255 100 100
-0.054081 0.152872 0.188311 255 100 100
0.035194 0.409963 -0.025027 255 100 100
0.222307 -0.051412 -0.104022 255 100 100
0.337892 0.215651 -0.030380 255 100 100
-0.401692 -0.364545 0.191730 255 100 100
0.091110 -0.014526 -0.051915 255 100 100
-0.644539 -0.175693 0.210926 255 100 100
-0.071937 0.182950 0.011532 255 100 100
-0.155650 0.176635 0.128458 255 100 100
0.128616 0.176450 -0.121197 255 100 100
-0.419629 -0.124407 -0.166544 255 100 100
-0.336804 -0.271612 -0.346374 255 100 100
-0.284350 0.214507 0.028361 255 100 100
-0.166344 -0.160928 -0.011223 255 100 100
-0.233898 0.085544 -0.200336 255 100 100
0.083348 0.108700 0.089738 255 100 100
0.111912 0.117595 0.248960 255 100 100
-0.081425 -0.098220 0.240788 255 100 100
-0.165146 0.337074 0.034682 255 100 100
0.282904 -0.042936 -0.345232 255 100 100
0.435293 0.032600 0.292846 255 100 100
-0.152722 -0.026585 0.106714 255 100 100
0.024242 0.156037 0.130768 255 100 100
-0.051708 0.085527 -0.172426 255 100 100
-0.074737 0.277001 -0.009698 255 100 100
0.023904 0.010974 -0.323879 255 100 100
-0.338376 0.142102 0.162231 255 100 100
0.262723 0.129568 0.005642 255 100 100
0.351190 0.227141 -0.359566 255 100 100
-0.217390 0.039249 0.279547 255 100 100
-0.249243 -0.099190 -0.020153 255 100 100
-0.187018 0.072292 -0.141564 255 100 100
-0.143557 0.061222 -0.422456 255 100 100
0.276042 -0.241907 0.546407 255 100 100
0.148876 0.231285 -0.097371 255 100 100
0.064525 0.027655 -0.367237 255 100 100
-0.201659 -0.278444 -0.264378 255 100 100
0.125554 0.379179 -0.315821 255 100 100
0.067705 -0.023503 0.059287 255 100 100
-0.480713 -0.269372 -0.343678 255 100 100
-0.186916 -0.072596 -0.001233 255 100 100
-0.324571 -0.127300 -0.055718 255 100 100
-0.079922 0.104035 -0.034505 255 100 100
0.033972 -0.054022 0.132892 255 100 100
-0.104206 0.280843 -0.280555 255 100 100
0.150747 -0.009373 -0.350449 255 100 100
-0.304502 -0.035981 0.112871 255 100 100
0.039941 -0.211054 0.453672 255 100 100
0.006216 -0.065914 -0.009363 255 100 100
-0.038298 0.125066 0.486364 255 100 100
0.180749 -0.039311 0.106457 255 100 100
0.313740 0.029325 -0.257333 255 100 100
-0.052057 -0.033373 0.403409 255 100 100
0.012136 -0.002688 0.264009 255 100 100
0.372882 -0.044488 0.127467 255 100 100
0.057593 0.030704 0.139507 255 100 100
0.455746 0.117058 0.056717 255 100 100
0.177003 0.010459 -0.079666 255 100 100
0.060445 -0.087735 0.225246 255 100 100
-0.008147 -0.124766 0.144680 255 100 100
0.246588 0.004398 -0.012931 255 100 100
0.157070 0.270246 -0.487823 255 100 100
-0.104320 -0.034517 -0.254035 255 100 100
0.117572 0.062804 -0.018985 255 100 100
-0.409854 0.110602 0.096213 255 100 100
0.068279 -0.072471 0.167810 255 100 100
-0.268134 -0.093237 0.316761 255 100 100
0.428874 0.013506 0.007131 255 100 100
0.386831 -0.151577 -0.326260 255 100 100
0.195413 0.051671 0.007947 255 100 100
0.017676 0.155075 0.454797 255 100 100
0.081129 -0.220190 -0.573860 255 100 100
-0.247137 -0.137746 -0.141215 255 100 100
0.061175 0.172709 0.014661 255 100 100
0.168383 0.053347 -0.042574 255 100 100
0.095354 0.020281 -0.213040 255 100 100
-0.239175 0.117308 0.332219 255 100 100
0.010464 0.468977 0.175109 255 100 100
-0.015953 0.146297 -0.338193 255 100 100
-0.346781 -0.224290 0.294335 255 100 100
-0.067175 -0.078030 -0.051360 255 100 100
0.045973 0.182427 -0.675823 255 100 100
0.039985 0.321617 0.051076 255 100 100
0.000556 0.046651 -0.000159 255 100 100
0.515040 0.039589 -0.358535 255 100 100
0.181306 -0.213171 -0.620266 255 100 100
-0.125211 -0.109193 -0.055449 255 100 100
0.267085 0.035098 0.391755 255 100 100
0.179727 -0.036552 0.088659 255 100 100
0.305812 0.139588 -0.126687 255 100 100
0.415284 -0.031555 -0.176185 255 100 100
0.058073 0.090567 -0.007423 255 100 100
0.097048 0.162976 -0.055054 255 100 100
0.260803 0.065355 -0.148518 255 100 100
0.001459 0.235762 0.303755 255 100 100
0.545482 -0.113982 -0.348350 255 100 100
0.186406 0.059299 -0.111707 255 100 100
0.172227 -0.004315 0.628017 255 100 100
-0.164097 -0.429904 0.491085 255 100 100
0.187352 0.311806 -0.065177 255 100 100
-0.255408 -0.157228 0.325975 255 100 100
-0.299716 -0.071433 0.137915 255 100 100
-0.335709 -0.010137 -0.243196 255 100 100
-0.328061 -0.454736 0.082095 255 100 100
-0.131546 -0.044178 0.215889 255 100 100
0.010199 0.028767 0.036113 255 100 100
0.425048 -0.242480 0.387916 255 100 100
0.091972 -0.059480 0.321178 255 100 100
0.267491 -0.185636 -0.382385 255 100 100
-0.214898 -0.082085 -0.210179 255 100 100
0.000741 0.317392 0.128665 255 100 100
-0.390852 -0.223594 0.093678 255 100 100
-0.477688 0.183986 -0.048752 255 100 100
-0.098097 0.159133 0.094100 255 100 100
-0.208773 -0.038230 0.052911 255 100 100
-0.307601 0.185321 -0.258973 255 100 100
-0.127578 0.177048 0.144310 255 100 100
-0.088899 0.129587 0.086357 255 100 100
0.089054 0.135790 0.076730 255 100 100
-0.327929 0.122408 0.283014 255 100 100
-0.042165 -0.132028 -0.381673 255 100 100
0.252080 -0.020856 0.085441 255 100 100
-0.050257 -0.022435 0.163260 255 100 100
0.144424 -0.389288 0.473124 255 100 100
0.061968 0.255292 0.460978 255 100 100
0.100444 0.232623 -0.303500 255 100 100
0.424944 0.201189 0.108293 255 100 100
0.035027 0.014424 -0.374925 255 100 100
-0.101703 0.056358 0.371288 255 100 100
-0.405344 0.162661 0.173131 255 100 100
-0.241875 -0.115567 -0.315235 255 100 100
-0.123009 0.205801 0.104916 255 100 100
-0.360310 0.183453 0.326373 255 100 100
-0.165160 0.073037 0.130631 255 100 100
0.130000 0.266124 -0.166939 255 100 100
0.545376 -0.036713 0.070722 255 100 100
0.406236 -0.080170 -0.326040 255 100 100
-0.174019 0.206315 0.172565 255 100 100
0.065051 -0.077283 -0.166614 255 100 100
0.453692 -0.243543 -0.383539 255 100 100
0.280952 0.040713 -0.007013 255 100 100
-0.311432 -0.362315 0.233250 255 100 100
-0.181811 0.019287 -0.205075 255 100 100
-0.190516 0.136417 -0.353263 255 100 100
0.122262 0.124582 -0.087699 255 100 100
-0.349854 -0.192377 0.434639 255 100 100
-0.243553 -0.168347 0.291597 255 100 100
-0.097821 0.003893 -0.308493 255 100 100
-0.284259 -0.136804 -0.183659 255 100 100
-0.187789 -0.089480 -0.404359 255 100 100
0.154957 -0.420096 0.525584 255 100 100
0.143101 -0.203603 0.388873 255 100 100
0.015299 -0.124485 -0.579037 255 100 100
0.005732 -0.052999 0.042681 255 100 100
0.288086 0.199864 0.197571 255 100 100
0.064364 -0.124582 0.215026 255 100 100
-0.102418 -0.136568 0.153738 255 100 100
-0.114902 0.054516 -0.322158 255 100 100
0.023242 -0.121738 -0.485373 255 100 100
0.097933 0.042676 0.170311 255 100 100
-0.024564 0.117538 -0.230860 255 100 100
0.102765 0.179769 -0.254621 255 100 100
0.205376 0.140915 0.120384 255 100 100
0.183423 0.218594 0.311514 255 100 100
0.306510 -0.001659 -0.283439 255 100 100
0.019741 -0.037522 0.212601 255 100 100
-0.344564 -0.071140 0.046751 255 100 100
0.145036 0.090691 0.049284 255 100 100
0.070167 0.056069 -0.025755 255 100 100
-0.227137 -0.005405 0.438925 255 100 100
0.100803 0.013972 -0.294883 255 100 100
0.329734 -0.108998 0.222145 255 100 100
-0.149192 -0.224777 0.179643 255 100 100
-0.017073 -0.260028 0.585837 255 100 100
-0.169097 -0.073365 -0.106878 255 100 100
-0.482320 -0.169032 -0.191925 255 100 100
0.276227 0.035892 0.240078 255 100 100
-0.058671 -0.107243 0.127406 255 100 100
-0.090403 0.146363 -0.013074 255 100 100
0.116339 -0.003447 -0.202100 255 100 100
-0.049674 0.091176 0.211039 255 100 100
0.165644 -0.059749 0.079492 255 100 100
0.113954 0.252348 0.240065 255 100 100
0.212713 -0.049546 0.200110 255 100 100
0.246962 0.090168 -0.036968 255 100 100
0.292006 -0.001987 0.092691 255 100 100
0.079620 0.156733 0.152415 255 100 100
0.162433 -0.163365 -0.369402 255 100 100
-0.399379 -0.196349 -0.134750 255 100 100
0.068457 0.011040 -0.078135 255 100 100
0.118575 0.092107 0.169001 255 100 100
-0.441311 -0.158179 -0.110758 255 100 100
-0.012704 -0.171044 -0.488810 255 100 100
0.523699 -0.155891 -0.110846 255 100 100
-0.080218 -0.337507 0.413820 255 100 100
-0.175165 0.186359 0.092656 255 100 100
0.168492 -0.023055 -0.315712 255 100 100
-0.024563 0.024985 0.051731 255 100 100
-0.010187 0.318956 -0.277009 255 100 100
-0.173162 -0.524120 0.386295 255 100 100
-0.152762 0.184501 -0.139255 255 100 100
-0.228796 0.125114 0.015625 255 100 100
0.161620 0.016506 -0.119702 255 100 100
-0.185009 -0.112276 0.356519 255 100 100
0.059509 -0.055601 0.197252 255 100 100
0.366321 -0.068640 -0.318682 255 100 100
0.137654 0.116945 -0.382489 255 100 100
-0.347578 -0.017008 -0.130997 255 100 100
-0.072759 0.106822 0.224260 255 100 100
-0.038742 -0.089526 0.067840 255 100 100
-0.233058 -0.244894 -0.116046 255 100 100
-0.252289 -0.183129 0.190387 255 100 100
0.643404 0.137352 0.108098 255 100 100
-0.033946 0.083990 -0.265184 255 100 100
-0.284040 -0.744705 -0.488670 255 100 100
0.051864 0.232575 -0.251262 255 100 100
-0.035522 0.031590 0.024476 255 100 100
-0.058633 0.077254 0.320577 255 100 100
0.499564 0.046064 0.106611 255 100 100
0.256132 0.216384 0.047488 255 100 100
0.303634 -0.058639 -0.125779 255 100 100
0.282827 -0.075160 0.108354 255 100 100
0.104485 -0.142871 -0.506289 255 100 100
-0.106510 -0.124384 -0.090655 255 100 100
-0.048406 -0.061559 -0.110581 255 100 100
-0.070839 -0.101274 0.207486 255 100 100
-0.288629 0.009319 0.004199 255 100 100
-0.134745 -0.221670 -0.341736 255 100 100
0.386976 0.225408 -0.179877 255 100 100
0.042600 0.341442 0.346139 255 100 100
0.491033 0.148804 -0.094020 255 100 100
-0.236769 -0.000690 -0.194391 255 100 100
0.090047 0.095009 -0.012428 255 100 100
0.612164 0.308811 -0.040430 255 100 100
-0.107138 0.048020 0.023942 255 100 100
0.817395 0.082242 0.044703 255 100 100
-0.100179 -0.106288 -0.189404 255 100 100
0.384611 -0.057701 -0.186424 255 100 100
0.076481 -0.056459 -0.144346 255 100 100
-0.133264 -0.167562 -0.191000 255 100 100
-0.226417 -0.074501 -0.133169 255 100 100
-0.188582 0.029447 -0.327825 255 100 100
0.137392 0.090264 -0.290282 255 100 100
0.600098 -0.183415 -0.149253 255 100 100
-0.259548 0.170804 -0.236387 255 100 100
0.392264 0.005322 0.338154 255 100 100
0.176053 -0.196332 0.388078 255 100 100
-0.100867 -0.051054 -0.050569 255 100 100
0.016192 0.363303 0.088178 255 100 100
0.096816 -0.019479 -0.191748 255 100 100
-0.253588 -0.211167 0.154444 255 100 100
0.185399 0.182063 -0.074428 255 100 100
0.308678 -0.032800 0.342046 255 100 100
0.074155 -0.077420 0.340350 255 100 100
-0.252918 0.219518 -0.354889 255 100 100
-0.505305 -0.019826 -0.335898 255 100 100
0.252633 0.107594 0.029946 255 100 100
-0.035763 0.072265 -0.061667 255 100 100
0.041203 -0.134956 -0.471613 255 100 100
-0.356119 -0.300263 -0.089159 255 100 100
0.457828 0.165524 0.518380 255 100 100
-0.049676 0.434843 -0.021726 255 100 100
0.485075 -0.153111 0.029201 255 100 100
0.188881 0.232911 0.030465 255 100 100
-0.029128 -0.023624 0.292980 255 100 100
-0.147366 -0.095436 -0.137114 255 100 100
-0.455952 0.077477 0.323556 255 100 100
0.008549 -0.317536 0.426836 255 100 100
0.097030 0.143070 -0.175579 255 100 100
