ply
format ascii 1.0
element vertex 1181
property float x
property float y
property float z
property uchar red
property uchar green
property uchar blue
end_header
-0.227572 -0.094853 -0.247587 255 100 100
0.099607 -0.166205 -0.369617 255 100 100
0.159022 -0.253861 -0.139609 255 100 100
-0.150064 -0.273005 0.240124 255 100 100
-0.185424 -0.486738 -0.681491 255 100 100
0.190331 -0.071507 0.540959 255 100 100
0.161101 -0.011976 -0.038037 255 100 100
0.513076 -0.052717 -0.308671 255 100 100
0.526016 0.498229 0.202491 255 100 100
-0.012732 -0.052419 -0.563113 255 100 100
-0.216643 -0.567721 0.048215 255 100 100
-0.107891 0.155023 -0.194360 255 100 100
-0.156832 -0.024854 -0.215215 255 100 100
-0.321910 0.016094 -0.162949 255 100 100
-0.147872 -0.051424 0.241804 255 100 100
0.066670 0.091891 0.311944 255 100 100
0.540282 0.117261 -0.083648 255 100 100
-0.050298 0.275497 -0.089584 255 100 100
0.221244 0.083723 0.378083 255 100 100
0.017784 -0.109297 -0.001694 255 100 100
-0.178002 0.355975 0.215926 255 100 100
0.137930 -0.085612 0.224896 255 100 100
0.013466 0.001715 -0.122403 255 100 100
-0.215587 0.172739 -0.105807 255 100 100
0.312075 -0.320501 0.080802 255 100 100
0.204157 -0.173398 0.108813 255 100 100
0.219757 0.216035 0.165083 255 100 100
0.167331 0.127440 0.216603 255 100 100
-0.156432 -0.134908 -0.136586 255 100 100
-0.424432 0.283712 -0.016168 255 100 100
-0.260952 -0.150849 -0.043904 255 100 100
0.389968 0.044588 -0.330158 255 100 100
0.076224 0.095950 0.103919 255 100 100
-0.487226 0.317355 0.271243 255 100 100
0.277734 -0.255334 0.172725 255 100 100
0.347898 -0.046957 0.221033 255 100 100
-0.130269 -0.463076 -0.052329 255 100 100
0.061071 -0.358152 0.361364 255 100 100
-0.045475 -0.218000 -0.514750 255 100 100
-0.206769 0.056291 -0.041904 255 100 100
-0.242209 0.414238 -0.063047 255 100 100
-0.126699 -0.193772 -0.318938 255 100 100
0.160454 -0.003508 -0.208368 255 100 100
0.219347 -0.028602 0.090050 255 100 100
0.009183 0.179454 -0.080161 255 100 100
0.033229 0.003914 0.014034 255 100 100
-0.162829 0.026925 0.167270 255 100 100
0.010878 -0.116696 -0.165638 255 100 100
-0.092748 -0.121433 0.073133 255 100 100
0.153188 0.000140 -0.216986 255 100 100
0.091903 -0.250463 0.122994 255 100 100
0.084470 -0.398941 0.423227 255 100 100
0.237616 -0.447201 0.071746 255 100 100
-0.380040 -0.005513 0.317037 255 100 100
-0.534417 -0.060297 -0.070244 255 100 100
0.296365 -0.184006 -0.159185 255 100 100
-0.474988 0.300929 -0.066059 255 100 100
0.005253 -0.298493 0.451302 255 100 100
0.039443 -0.257115 0.158004 255 100 100
-0.202094 0.145022 -0.324021 255 100 100
-0.061354 -0.212237 0.005471 255 100 100
0.259034 0.238417 -0.128832 255 100 100
0.067115 -0.288981 -0.565063 255 100 100
0.195450 0.055841 0.484342 255 100 100
0.124483 -0.505173 0.416258 255 100 100
0.124639 0.272518 0.061730 255 100 100
-0.052465 0.690813 -0.020266 255 100 100
-0.149856 -0.053720 0.085797 255 100 100
-0.521412 -0.226569 0.157884 255 100 100
-0.240963 -0.221063 0.135076 255 100 100
-0.201715 0.181156 -0.079855 255 100 100
-0.231905 0.143566 0.080183 255 100 100
-0.041902 -0.105653 0.027265 255 100 100
0.038915 0.081190 0.065215 255 100 100
0.282770 0.340847 -0.222777 255 100 100
-0.058651 -0.063410 0.058577 255 100 100
-0.338129 0.017648 -0.001646 255 100 100
0.349254 -0.012161 0.109858 255 100 100
-0.089674 0.040325 0.123763 255 100 100
-0.028091 -0.257800 0.341863 255 100 100
-0.093443 0.122120 -0.141629 255 100 100
0.005219 -0.429353 -0.218438 255 100 100
-0.217871 -0.264705 0.074997 255 100 100
0.058135 -0.060740 -0.234646 255 100 100
0.332536 0.329492 0.030758 255 100 100
0.066950 0.300751 -0.200288 255 100 100
0.057118 -0.040369 0.075237 255 100 100
-0.110318 0.177843 0.023200 255 100 100
0.199898 0.646253 0.051174 255 100 100
0.056541 -0.210555 0.104618 255 100 100
-0.117450 0.011757 0.250786 255 100 100
0.003218 0.131024 -0.329076 255 100 100
-0.260291 -0.024527 0.171368 255 100 100
0.209997 0.030506 -0.008028 255 100 100
-0.225924 -0.235763 0.135635 255 100 100
-0.378484 -0.207647 -0.038173 255 100 100
0.103931 0.025642 0.351699 255 100 100
-0.506905 0.111246 0.031425 255 100 100
-0.074126 -0.207602 -0.076583 255 100 100
-0.007306 0.020470 0.002442 255 100 100
-0.503653 -0.154032 -0.127510 255 100 100
-0.003642 0.019266 0.025654 255 100 100
-0.095316 0.222340 0.144277 255 100 100
-0.059162 -0.393166 -0.071784 255 100 100
-0.149269 -0.537370 -0.419467 255 100 100
0.334975 -0.046500 -0.460715 255 100 100
-0.207109 -0.100036 0.012667 255 100 100
0.119062 0.320623 -0.318373 255 100 100
-0.198710 -0.033991 0.022052 255 100 100
-0.265327 0.336313 -0.267087 255 100 100
-0.248634 -0.169548 0.164133 255 100 100
0.307879 -0.076726 0.573229 255 100 100
-0.182611 0.071539 0.007875 255 100 100
0.084237 -0.214620 0.010466 255 100 100
0.341127 -0.209573 -0.535005 255 100 100
0.195078 0.098070 0.136315 255 100 100
-0.001492 -0.121554 0.316901 255 100 100
0.044512 -0.111142 -0.468319 255 100 100
0.198678 0.420023 -0.424727 255 100 100
-0.035455 0.035104 -0.372845 255 100 100
-0.462119 0.287076 -0.050843 255 100 100
0.041175 0.242335 0.061697 255 100 100
0.009450 -0.290368 -0.050008 255 100 100
-0.184818 0.156077 0.041229 255 100 100
0.071804 0.274225 0.276827 255 100 100
0.504476 -0.001005 0.041592 255 100 100
-0.107423 0.479558 0.061006 255 100 100
0.439726 -0.313517 0.291977 255 100 100
0.257906 0.070418 0.112799 255 100 100
0.016128 0.056862 0.217084 255 100 100
-0.031284 -0.118643 -0.339079 255 100 100
-0.043763 -0.306474 -0.048575 255 100 100
-0.238241 0.164511 0.181937 255 100 100
0.095144 0.046774 0.351774 255 100 100
-0.242952 0.202819 -0.192663 255 100 100
-0.358681 0.004173 0.337728 255 100 100
0.261757 0.073655 0.288274 255 100 100
0.395187 0.071942 0.075170 255 100 100
0.043540 -0.028786 -0.116913 255 100 100
-0.140831 -0.180869 0.169500 255 100 100
-0.146165 -0.088634 0.024842 255 100 100
0.339718 0.011234 0.390566 255 100 100
-0.140653 -0.151857 0.281189 255 100 100
-0.115541 0.048619 0.213011 255 100 100
0.128983 -0.003076 -0.098518 255 100 100
-0.320785 -0.123868 -0.161854 255 100 100
-0.011515 -0.205137 0.041012 255 100 100
-0.549908 -0.037257 -0.068321 255 100 100
-0.158407 0.077134 -0.228004 255 100 100
-0.443598 -0.365158 0.264738 255 100 100
0.291313 -0.060660 -0.200649 255 100 100
-0.444944 -0.264128 0.126176 255 100 100
-0.295284 -0.415145 -0.206445 255 100 100
-0.017626 -0.167817 -0.204534 255 100 100
-0.016480 0.268659 0.081193 255 100 100
0.022720 0.067236 0.220226 255 100 100
-0.072850 -0.302917 0.211322 255 100 100
-0.223050 -0.141718 -0.042426 255 100 100
-0.152985 0.048109 0.214982 255 100 100
0.501059 0.075017 -0.309891 255 100 100
0.066284 0.098141 0.003572 255 100 100
0.015504 0.485624 0.212795 255 100 100
-0.279403 -0.354594 -0.343913 255 100 100
-0.023358 0.296431 -0.036876 255 100 100
-0.022901 0.416515 -0.130972 255 100 100
-0.238407 0.135605 0.356215 255 100 100
-0.217039 -0.291589 -0.566433 255 100 100
-0.153726 -0.268247 -0.004936 255 100 100
0.045658 0.265259 0.080079 255 100 100
0.121455 -0.068723 -0.196533 255 100 100
0.156062 0.267945 -0.034839 255 100 100
0.347663 0.349634 0.003314 255 100 100
-0.058880 -0.060494 -0.431417 255 100 100
-0.016922 0.030129 0.262063 255 100 100
-0.245246 0.315833 -0.545973 255 100 100
-0.036263 -0.045435 -0.166739 255 100 100
-0.275494 -0.407494 0.388552 255 100 100
0.014138 0.146874 0.090770 255 100 100
-0.213453 -0.417042 -0.144410 255 100 100
-0.008603 0.273264 -0.004931 255 100 100
0.109133 -0.243227 0.199311 255 100 100
-0.169642 0.190065 0.021100 255 100 100
-0.106491 -0.316642 -0.504821 255 100 100
0.278568 -0.142930 -0.173017 255 100 100
0.283256 0.008604 0.189876 255 100 100
-0.221254 0.016087 0.235842 255 100 100
-0.429320 0.062345 0.103331 255 100 100
-0.427867 0.033602 0.135687 255 100 100
0.015745 -0.450743 -0.428746 255 100 100
-0.415285 0.310636 -0.110709 255 100 100
-0.159405 0.058787 -0.034842 255 100 100
-0.251782 -0.218871 -0.138357 255 100 100
-0.009454 -0.490483 -0.643260 255 100 100
-0.384066 -0.219942 0.345741 255 100 100
-0.295294 0.126367 -0.521179 255 100 100
0.035996 0.193572 -0.000109 255 100 100
0.000099 0.134352 -0.083651 255 100 100
0.301156 0.100274 0.082046 255 100 100
0.443564 -0.586853 -0.388078 255 100 100
0.096744 -0.197172 -0.208635 255 100 100
0.091634 0.141004 -0.464922 255 100 100
0.075837 0.298945 0.168431 255 100 100
-0.354250 0.327680 0.022815 255 100 100
-0.035795 -0.194415 0.101985 255 100 100
-0.011987 -0.301547 -0.206030 255 100 100
-0.018206 0.092880 -0.173833 255 100 100
0.267888 0.317210 0.152242 255 100 100
-0.070831 -0.031718 -0.224749 255 100 100
0.178276 0.127098 0.453825 255 100 100
0.030940 -0.380312 0.158123 255 100 100
0.214517 0.314503 -0.342253 255 100 100
-0.046978 0.476351 0.736170 255 100 100
0.127085 -0.263492 -0.023437 255 100 100
0.437244 0.212812 0.214077 255 100 100
-0.140835 0.169939 -0.036131 255 100 100
-0.174811 -0.181267 -0.158701 255 100 100
-0.311997 0.104049 -0.060532 255 100 100
-0.239100 -0.249802 -0.089147 255 100 100
-0.389255 -0.364847 0.219089 255 100 100
0.122845 0.222241 -0.041255 255 100 100
-0.276112 -0.111362 -0.039071 255 100 100
-0.145260 -0.336457 -0.013367 255 100 100
0.161584 -0.363163 0.075505 255 100 100
0.031923 0.225040 0.292190 255 100 100
0.531345 0.326232 0.177777 255 100 100
0.334734 -0.034552 0.486419 255 100 100
-0.127856 0.240428 -0.151784 255 100 100
-0.142693 0.073464 0.167714 255 100 100
0.036475 -0.405743 0.091953 255 100 100
0.086063 -0.167043 0.140480 255 100 100
-0.281942 -0.267938 -0.302908 255 100 100
0.037099 0.304055 -0.155434 255 100 100
0.037446 0.070744 -0.262705 255 100 100
-0.394369 -0.149015 -0.116165 255 100 100
0.188544 0.233008 0.329841 255 100 100
0.214583 0.049946 -0.112016 255 100 100
-0.443924 -0.172101 -0.035021 255 100 100
0.052073 0.352968 -0.093109 255 100 100
-0.119978 -0.258775 -0.278264 255 100 100
0.120503 0.118151 0.051605 255 100 100
-0.017868 -0.015576 -0.175481 255 100 100
0.151192 0.214074 -0.208897 255 100 100
-0.064949 0.151402 0.008494 255 100 100
0.288030 0.339347 -0.160273 255 100 100
-0.503778 -0.204527 -0.314650 255 100 100
0.318967 0.025750 0.573012 255 100 100
-0.389451 -0.175718 0.110239 255 100 100
-0.171483 0.158837 0.237062 255 100 100
-0.369545 -0.045611 0.261224 255 100 100
0.114309 0.169113 0.346397 255 100 100
-0.088135 0.414250 0.084409 255 100 100
-0.140206 -0.597299 0.789669 255 100 100
0.103164 -0.047410 0.039826 255 100 100
-0.073694 0.049475 -0.046824 255 100 100
-0.155181 0.178678 -0.533080 255 100 100
-0.017022 -0.033463 -0.039213 255 100 100
-0.074123 -0.049460 -0.084158 255 100 100
-0.182569 0.243579 -0.193421 255 100 100
0.006348 0.287831 -0.065694 255 100 100
0.069197 0.243957 -0.237720 255 100 100
-0.056202 0.162900 0.133781 255 100 100
0.593001 -0.260546 0.010659 255 100 100
-0.233459 -0.329993 -0.177803 255 100 100
0.293912 -0.240913 -0.346473 255 100 100
-0.265601 0.263278 -0.311383 255 100 100
-0.028624 -0.373551 0.105632 255 100 100
-0.037159 0.252350 0.118916 255 100 100
-0.077804 -0.057703 -0.168301 255 100 100
0.129782 0.022934 -0.016609 255 100 100
-0.328740 -0.199170 -0.545621 255 100 100
0.193805 -0.317848 -0.365888 255 100 100
-0.023311 -0.223961 -0.009385 255 100 100
-0.052384 -0.316682 0.080658 255 100 100
0.415646 0.218944 -0.146927 255 100 100
-0.502523 0.029387 -0.166522 255 100 100
0.239408 0.117506 -0.113727 255 100 100
-0.060113 0.305869 -0.676569 255 100 100
0.561956 -0.007725 0.011593 255 100 100
-0.021688 0.488697 -0.012685 255 100 100
0.084901 -0.083901 0.263896 255 100 100
0.422273 -0.314947 -0.040843 255 100 100
-0.066595 0.041557 -0.529276 255 100 100
-0.045934 0.399776 0.069288 255 100 100
0.161059 0.263612 -0.377711 255 100 100
-0.031370 0.043801 -0.492867 255 100 100
-0.015235 -0.094566 0.162150 255 100 100
0.415039 0.121614 -0.247300 255 100 100
0.157367 -0.027665 -0.014629 255 100 100
0.038770 -0.019036 -0.140097 255 100 100
-0.089120 0.080729 0.081070 255 100 100
-0.033857 0.256104 -0.520840 255 100 100
-0.003970 0.312485 0.095252 255 100 100
-0.145999 0.563213 0.022198 255 100 100
-0.104312 -0.305747 -0.089886 255 100 100
0.195529 -0.132299 -0.034563 255 100 100
0.020150 -0.507928 -0.325770 255 100 100
-0.065705 -0.023843 0.136212 255 100 100
-0.303113 0.076741 0.098342 255 100 100
-0.086695 0.045318 -0.066353 255 100 100
0.271663 0.231613 -0.143014 255 100 100
0.087309 0.070079 0.014539 255 100 100
-0.067867 0.315429 -0.006738 255 100 100
-0.276299 -0.272339 -0.087356 255 100 100
0.116104 0.188452 0.016565 255 100 100
0.204005 0.263454 0.059989 255 100 100
-0.288299 0.156714 0.245413 255 100 100
0.271999 -0.203849 -0.018091 255 100 100
-0.240932 -0.120811 -0.110295 255 100 100
-0.144765 -0.119408 0.096514 255 100 100
-0.211863 -0.163051 -0.016822 255 100 100
-0.145604 -0.178335 -0.036565 255 100 100
0.020736 -0.450896 0.098211 255 100 100
-0.116502 0.127929 0.216342 255 100 100
-0.064773 -0.073349 0.197418 255 100 100
0.104357 0.122086 0.026880 255 100 100
0.306336 0.044574 0.257534 255 100 100
0.456800 0.156155 -0.332995 255 100 100
0.193294 0.159330 0.054228 255 100 100
-0.235953 0.196971 0.484499 255 100 100
0.054499 0.105409 -0.458290 255 100 100
0.280159 -0.039033 0.217664 255 100 100
0.135087 0.214336 -0.001942 255 100 100
0.068498 0.289081 0.207529 255 100 100
-0.049601 0.257162 0.210584 255 100 100
0.071596 -0.164934 -0.023421 255 100 100
-0.082134 0.445709 -0.131887 255 100 100
0.026353 -0.218907 -0.308832 255 100 100
0.558210 -0.028071 0.016383 255 100 100
0.390125 0.106378 0.203987 255 100 100
0.140311 0.283163 0.208596 255 100 100
-0.052085 0.200388 0.095812 255 100 100
-0.246261 0.044490 -0.149298 255 100 100
0.121308 -0.162383 0.041947 255 100 100
-0.162355 -0.176247 -0.130878 255 100 100
0.028923 -0.310544 0.079378 255 100 100
0.134113 0.270293 -0.431321 255 100 100
-0.396639 -0.299302 -0.061498 255 100 100
-0.059882 -0.199206 -0.065285 255 100 100
0.118836 -0.150641 -0.252281 255 100 100
-0.282350 -0.142164 0.133388 255 100 100
0.077862 0.109512 0.320195 255 100 100
-0.309868 -0.002618 0.300761 255 100 100
0.162620 -0.203726 0.184216 255 100 100
-0.292700 0.259198 0.030609 255 100 100
0.360887 0.048736 -0.468656 255 100 100
-0.429744 0.517956 0.045807 255 100 100
-0.091155 0.035805 0.106668 255 100 100
0.130697 0.015013 -0.552772 255 100 100
-0.139535 -0.067610 -0.275311 255 100 100
0.050627 -0.303554 -0.313841 255 100 100
0.038317 0.211675 0.347607 255 100 100
-0.112669 0.089247 0.422336 255 100 100
-0.302141 0.037866 -0.054589 255 100 100
0.016072 -0.122589 0.224386 255 100 100
-0.096280 -0.390871 0.317065 255 100 100
0.227586 0.230141 0.426429 255 100 100
-0.243961 0.268058 0.228195 255 100 100
-0.045600 0.062269 0.030873 255 100 100
0.163713 0.083470 0.150438 255 100 100
0.050766 0.055439 -0.145041 255 100 100
-0.139330 0.093638 0.110734 255 100 100
0.032078 0.320432 0.159662 255 100 100
-0.069139 0.227990 -0.083508 255 100 100
0.009169 -0.171046 0.178318 255 100 100
0.082569 0.176450 0.094828 255 100 100
-0.392701 -0.499793 0.181954 255 100 100
0.302560 -0.070157 -0.080219 255 100 100
-0.671705 -0.017569 0.267355 255 100 100
0.014723 0.099768 0.503484 255 100 100
-0.233738 0.095222 -0.345921 255 100 100
0.008333 -0.277621 -0.154519 255 100 100
-0.349455 0.085392 -0.558354 255 100 100
0.279280 -0.139834 0.070791 255 100 100
0.511420 0.533263 0.112586 255 100 100
0.108835 0.166412 0.143043 255 100 100
-0.118400 0.205571 0.041214 255 100 100
-0.375552 0.391862 -0.083552 255 100 100
-0.098607 -0.244545 -0.259631 255 100 100
-0.107224 -0.308521 -0.014948 255 100 100
-0.175090 0.357734 -0.217519 255 100 100
-0.224456 -0.139246 -0.079810 255 100 100
-0.126822 0.106200 -0.254244 255 100 100
-0.007025 0.175669 -0.247638 255 100 100
-0.290238 0.115572 -0.163521 255 100 100
0.142451 0.122629 -0.175381 255 100 100
-0.065931 0.382503 -0.212043 255 100 100
-0.271419 0.113688 0.018228 255 100 100
-0.004682 0.056013 0.011514 255 100 100
-0.219195 0.160873 -0.056262 255 100 100
-0.565633 -0.491064 -0.069125 255 100 100
0.322515 0.377177 -0.145658 255 100 100
0.012474 -0.394793 0.094671 255 100 100
0.302853 -0.050285 0.444895 255 100 100
-0.170031 -0.010256 0.098570 255 100 100
0.161941 0.101340 0.215129 255 100 100
0.222028 -0.277631 -0.495988 255 100 100
0.079993 -0.066681 0.085970 255 100 100
-0.055452 0.180010 -0.069883 255 100 100
0.008349 0.292266 -0.038679 255 100 100
0.108324 0.236425 -0.000981 255 100 100
0.596961 0.245725 -0.210605 255 100 100
-0.021996 -0.166486 -0.313961 255 100 100
-0.351664 -0.499518 -0.086334 255 100 100
-0.115219 0.122047 -0.127751 255 100 100
0.054973 0.174271 -0.317127 255 100 100
0.909298 -0.049152 -0.095473 255 100 100
0.234061 -0.127169 -0.054987 255 100 100
0.328535 0.317482 -0.464140 255 100 100
-0.144186 0.026044 -0.008294 255 100 100
0.085780 0.339224 -0.366685 255 100 100
0.257439 -0.238743 -0.113364 255 100 100
-0.411565 0.183415 -0.550059 255 100 100
0.157172 0.148778 0.543536 255 100 100
-0.476775 0.054647 0.051875 255 100 100
-0.232376 -0.300409 0.150181 255 100 100
0.350441 -0.076212 0.009193 255 100 100
-0.336821 0.481128 -0.196908 255 100 100
-0.045594 0.139816 0.437593 255 100 100
0.106275 -0.062530 0.093166 255 100 100
-0.030415 -0.006051 -0.412781 255 100 100
-0.050299 -0.153085 0.168031 255 100 100
-0.492632 0.571336 -0.174448 255 100 100
-0.468345 0.184934 -0.252608 255 100 100
0.013251 0.077711 -0.036538 255 100 100
0.082011 -0.236760 0.367171 255 100 100
0.101506 0.108180 0.197543 255 100 100
0.064184 0.235310 0.206606 255 100 100
-0.025034 0.099154 -0.203173 255 100 100
0.028482 -0.194564 -0.013323 255 100 100
0.096212 0.255193 0.146921 255 100 100
0.011821 -0.347426 0.034950 255 100 100
-0.087756 0.438293 0.168986 255 100 100
0.094769 0.271370 -0.100594 255 100 100
-0.290496 0.133701 -0.069785 255 100 100
-0.177286 0.227303 0.221324 255 100 100
-0.162821 -0.141162 -0.051270 255 100 100
-0.016606 0.078863 0.121064 255 100 100
-0.048281 -0.028062 0.034320 255 100 100
-0.407434 0.371847 0.243282 255 100 100
-0.095625 0.413467 -0.184461 255 100 100
0.130397 -0.219312 -0.492826 255 100 100
-0.171583 -0.320167 0.420508 255 100 100
-0.114973 0.002210 -0.100582 255 100 100
0.137995 -0.169133 -0.125293 255 100 100
0.403454 -0.053341 0.047583 255 100 100
-0.085966 -0.246174 0.130858 255 100 100
0.487542 -0.081341 0.109679 255 100 100
0.164751 -0.068783 0.144736 255 100 100
0.076868 0.200424 -0.145952 255 100 100
0.057455 -0.462467 -0.039116 255 100 100
-0.059826 -0.068469 -0.064612 255 100 100
-0.164650 0.177925 0.177160 255 100 100
-0.069103 -0.279011 0.203706 255 100 100
0.258505 -0.271815 0.167105 255 100 100
0.070163 0.247880 -0.090784 255 100 100
-0.210740 0.102380 -0.155768 255 100 100
0.032308 0.003988 0.354050 255 100 100
-0.352989 -0.422298 -0.150908 255 100 100
0.109419 0.445678 -0.072863 255 100 100
0.397133 -0.030560 -0.313989 255 100 100
0.214010 -0.070947 0.295519 255 100 100
-0.002734 0.082993 0.174199 255 100 100
-0.173328 0.303144 -0.014882 255 100 100
-0.021947 -0.300188 0.485405 255 100 100
0.205464 -0.078505 0.407474 255 100 100
-0.203427 0.110156 -0.094340 255 100 100
0.366397 0.070293 0.339338 255 100 100
-0.000077 -0.069177 -0.167234 255 100 100
0.098427 0.048528 0.346399 255 100 100
0.093355 -0.020152 0.103885 255 100 100
0.120149 0.079871 -0.206637 255 100 100
0.033962 0.169689 0.097706 255 100 100
-0.170477 0.020480 -0.250805 255 100 100
-0.450511 0.058142 -0.066341 255 100 100
0.226235 -0.011576 -0.169423 255 100 100
0.013669 -0.018399 -0.193032 255 100 100
0.044668 0.308469 -0.050602 255 100 100
0.213893 -0.129913 -0.581647 255 100 100
0.600050 -0.217620 -0.281653 255 100 100
0.219336 0.195619 0.061452 255 100 100
-0.029081 0.294967 0.264107 255 100 100
0.431874 -0.369970 0.062450 255 100 100
-0.121242 -0.074473 0.144158 255 100 100
0.189845 -0.205642 -0.123051 255 100 100
0.240511 0.045059 -0.150555 255 100 100
-0.154331 0.415183 -0.243502 255 100 100
-0.088804 0.421759 -0.161057 255 100 100
-0.170938 0.271268 -0.326397 255 100 100
0.007568 -0.129846 -0.181947 255 100 100
0.042386 0.175808 0.320455 255 100 100
-0.098122 0.173381 0.038383 255 100 100
-0.090646 -0.441444 -0.072323 255 100 100
0.121637 0.340808 -0.112726 255 100 100
0.360597 -0.009236 -0.159737 255 100 100
0.176901 0.206282 -0.199874 255 100 100
-0.320377 -0.171918 0.000289 255 100 100
-0.196595 0.037482 0.071464 255 100 100
-0.031085 -0.247675 -0.303565 255 100 100
0.137394 0.181203 -0.547317 255 100 100
0.181412 -0.306035 -0.043729 255 100 100
0.013476 -0.037959 -0.167097 255 100 100
-0.040759 -0.465329 0.263845 255 100 100
-0.175484 -0.073733 0.074623 255 100 100
0.360679 0.392270 -0.296647 255 100 100
-0.116480 -0.297582 0.087817 255 100 100
-0.418991 0.218931 0.000188 255 100 100
-0.167939 0.165443 0.184772 255 100 100
0.075642 -0.070435 0.391794 255 100 100
0.353494 -0.278163 -0.420376 255 100 100
-0.504754 0.340792 0.498778 255 100 100
0.221849 -0.134616 -0.014634 255 100 100
-0.539935 0.337226 -0.178106 255 100 100
-0.166594 0.273993 0.123420 255 100 100
-0.096453 -0.014552 -0.112764 255 100 100
0.274852 -0.370160 0.257352 255 100 100
-0.043543 -0.213957 -0.186893 255 100 100
0.172813 -0.259241 0.048413 255 100 100
-0.189039 -0.133417 0.612507 255 100 100
0.206707 0.609541 0.118427 255 100 100
-0.198712 -0.006506 -0.052802 255 100 100
0.359373 0.352552 0.070816 255 100 100
-0.156580 -0.061529 -0.323340 255 100 100
0.161650 -0.118395 -0.318997 255 100 100
0.181434 -0.080337 -0.084638 255 100 100
-0.029042 0.218387 -0.348620 255 100 100
-0.007782 -0.343994 0.214655 255 100 100
0.076811 0.164730 0.227925 255 100 100
0.210687 -0.037409 0.049435 255 100 100
0.478231 0.066350 0.102745 255 100 100
0.040002 0.444665 -0.075286 255 100 100
-0.255630 0.121956 0.206711 255 100 100
-0.701432 0.124754 -0.109758 255 100 100
-0.057344 0.070359 0.140693 255 100 100
-0.017715 -0.254386 -0.101047 255 100 100
-0.111770 -0.151144 -0.250251 255 100 100
-0.298133 -0.121226 0.130270 255 100 100
0.153224 -0.217253 0.084433 255 100 100
0.069132 -0.124215 -0.100427 255 100 100
-0.304002 -0.196456 -0.285580 255 100 100
0.104455 -0.217623 -0.242372 255 100 100
-0.099798 0.138327 0.450977 255 100 100
0.265751 0.256081 0.115631 255 100 100
0.124165 0.245576 0.323067 255 100 100
0.100000 0.190119 -0.336068 255 100 100
0.495922 0.160689 0.003157 255 100 100
0.164680 -0.052067 -0.227606 255 100 100
-0.099748 -0.059875 0.148192 255 100 100
0.198876 0.036961 0.202181 255 100 100
-0.022110 -0.130037 -0.180347 255 100 100
0.292204 0.029942 -0.047084 255 100 100
0.048619 0.000536 0.063277 255 100 100
-0.033466 0.138777 0.143918 255 100 100
-0.784639 0.181038 -0.021039 255 100 100
0.257763 0.283088 0.105123 255 100 100
-0.187415 0.280235 -0.132686 255 100 100
-0.134277 -0.284667 -0.015611 255 100 100
-0.196363 0.214571 -0.331063 255 100 100
0.188123 0.330447 -0.159567 255 100 100
0.076382 -0.194825 -0.091203 255 100 100
0.298484 -0.111652 0.270765 255 100 100
0.157170 -0.311995 -0.464455 255 100 100
-0.180368 -0.147947 -0.054809 255 100 100
-0.260294 0.359019 0.281211 255 100 100
0.516448 -0.197691 0.351642 255 100 100
0.535150 0.171626 0.140821 255 100 100
-0.176525 0.000400 -0.004576 255 100 100
0.043368 0.242728 0.026172 255 100 100
0.077252 0.284520 -0.107596 255 100 100
0.188959 0.130708 -0.375920 255 100 100
-0.221191 0.238034 -0.040560 255 100 100
-0.255082 0.137777 -0.218222 255 100 100
-0.576752 -0.062764 0.442819 255 100 100
0.234987 -0.193819 0.293159 255 100 100
0.484731 0.094281 0.138011 255 100 100
0.144942 -0.448749 0.551651 255 100 100
0.293906 0.006360 0.223817 255 100 100
0.206987 -0.167044 -0.190128 255 100 100
-0.217951 0.242029 0.127723 255 100 100
-0.285899 0.240242 -0.115504 255 100 100
-0.230375 0.224336 0.206194 255 100 100
-0.171675 0.113174 0.004059 255 100 100
0.316034 0.157596 0.160015 255 100 100
0.143764 0.360072 0.043525 255 100 100
0.354615 -0.068524 0.018525 255 100 100
0.086008 0.116384 -0.445656 255 100 100
0.067881 0.096968 -0.407693 255 100 100
0.062899 -0.324531 -0.146616 255 100 100
0.000402 -0.153137 0.262154 255 100 100
0.539896 0.322732 -0.472695 255 100 100
-0.366483 -0.141475 0.066568 255 100 100
-0.290198 0.018046 0.100099 255 100 100
0.502675 -0.156292 0.595514 255 100 100
-0.573001 -0.434188 0.039712 255 100 100
-0.165541 -0.100880 0.356060 255 100 100
0.188428 -0.140850 0.462458 255 100 100
-0.306994 -0.060092 -0.008243 255 100 100
-0.134371 0.143957 0.004021 255 100 100
-0.138997 -0.605642 -0.088483 255 100 100
0.006986 -0.038234 -0.105911 255 100 100
0.070068 0.045312 -0.040802 255 100 100
0.042613 -0.405028 0.016269 255 100 100
-0.186981 -0.200682 -0.033461 255 100 100
-0.347496 -0.297997 -0.213764 255 100 100
-0.132655 0.443673 -0.149856 255 100 100
-0.080588 -0.178799 0.050752 255 100 100
-0.249186 0.035148 0.023516 255 100 100
0.098758 -0.029436 -0.204654 255 100 100
0.070983 -0.128202 -0.032068 255 100 100
0.381604 0.158399 -0.093041 255 100 100
0.092332 0.310870 0.087360 255 100 100
0.009231 -0.181125 -0.281187 255 100 100
0.024738 0.108749 -0.122227 255 100 100
0.359667 0.037621 -0.086706 255 100 100
-0.268979 0.358633 -0.009301 255 100 100
-0.182743 0.157093 -0.435534 255 100 100
0.219402 0.136705 0.090091 255 100 100
0.065033 0.198364 -0.483964 255 100 100
-0.272275 0.073797 0.004362 255 100 100
0.365117 0.162308 -0.405209 255 100 100
-0.293990 -0.776813 0.322392 255 100 100
-0.188111 -0.131375 -0.283812 255 100 100
0.302969 -0.004653 0.227237 255 100 100
0.219014 -0.171642 0.099684 255 100 100
-0.067011 0.363389 0.132926 255 100 100
-0.011911 -0.143159 0.136267 255 100 100
0.119294 0.068407 -0.471335 255 100 100
0.158255 0.704282 -0.309715 255 100 100
0.125748 -0.033431 -0.005915 255 100 100
0.616024 0.228530 0.464194 255 100 100
-0.021619 0.119483 0.095037 255 100 100
-0.523875 0.209263 0.047071 255 100 100
-0.196868 0.121849 -0.201310 255 100 100
0.651127 0.234846 0.131033 255 100 100
-0.293797 -0.117208 -0.177253 255 100 100
-0.034877 0.016177 -0.251791 255 100 100
0.007897 -0.009147 0.004765 255 100 100
-0.315688 0.324967 0.220146 255 100 100
0.028803 0.113666 0.123920 255 100 100
0.278409 0.189510 0.033727 255 100 100
0.187711 -0.289029 0.276354 255 100 100
-0.052282 0.119961 0.100805 255 100 100
-0.118632 0.180223 0.392199 255 100 100
0.229451 -0.108685 -0.095833 255 100 100
-0.274406 0.315601 -0.019862 255 100 100
-0.012744 0.269404 -0.086013 255 100 100
-0.200298 -0.324114 0.117224 255 100 100
-0.207674 -0.359404 -0.078879 255 100 100
0.089154 0.722606 0.410607 255 100 100
-0.277083 -0.265021 0.168509 255 100 100
0.144664 -0.006827 -0.705708 255 100 100
0.027178 -0.056307 0.063956 255 100 100
0.180026 -0.238999 0.028111 255 100 100
-0.140012 -0.220685 0.430506 255 100 100
0.023474 -0.048576 0.109920 255 100 100
0.442351 0.048587 0.184161 255 100 100
0.169312 -0.089956 -0.206547 255 100 100
0.179472 -0.035167 -0.117606 255 100 100
0.193424 0.030620 0.073770 255 100 100
0.590620 -0.112846 0.089679 255 100 100
0.243571 0.156313 -0.363264 255 100 100
-0.150817 0.207201 -0.134797 255 100 100
-0.569688 0.302154 0.169776 255 100 100
-0.003239 0.204396 -0.111107 255 100 100
0.382954 -0.083604 -0.046616 255 100 100
-0.231632 0.166524 0.079522 255 100 100
-0.016467 -0.417752 -0.435114 255 100 100
0.208031 -0.084734 -0.232890 255 100 100
-0.185668 -0.512248 0.057936 255 100 100
0.479046 0.248250 0.189150 255 100 100
-0.130263 -0.438440 -0.196598 255 100 100
0.253598 -0.357477 -0.319274 255 100 100
-0.009935 0.034642 -0.114609 255 100 100
-0.458555 -0.173255 0.315302 255 100 100
-0.151555 -0.027199 0.125157 255 100 100
-0.124160 -0.027257 -0.359180 255 100 100
-0.216362 0.306798 0.294405 255 100 100
-0.149027 0.164241 0.088650 255 100 100
-0.226906 -0.108721 -0.444668 255 100 100
-0.142654 -0.207581 0.105127 255 100 100
-0.321168 -0.027661 0.020276 255 100 100
-0.233765 -0.038286 -0.194229 255 100 100
-0.125881 0.010642 -0.218172 255 100 100
0.178761 -0.123071 -0.241275 255 100 100
-0.206569 0.073628 -0.036550 255 100 100
0.140225 0.121295 0.213714 255 100 100
-0.075955 -0.115146 -0.055176 255 100 100
-0.135887 -0.006323 -0.022708 255 100 100
0.181429 0.353282 0.434574 255 100 100
-0.145039 -0.007349 -0.316440 255 100 100
-0.488674 0.021156 -0.135439 255 100 100
0.118331 -0.229274 0.445507 255 100 100
-0.593653 0.107983 -0.177613 255 100 100
-0.099406 0.156217 -0.335133 255 100 100
-0.314473 -0.163657 0.005691 255 100 100
-0.004605 -0.089864 -0.073831 255 100 100
0.272547 -0.103756 -0.141486 255 100 100
0.052492 -0.064450 -0.275500 255 100 100
0.391558 -0.099666 -0.125158 255 100 100
0.098776 -0.063521 -0.014596 255 100 100
-0.065990 0.210527 -0.165324 255 100 100
-0.174833 -0.101820 0.397002 255 100 100
0.102426 -0.180428 -0.033140 255 100 100
0.166243 -0.369804 -0.252328 255 100 100
0.288634 -0.482171 -0.279936 255 100 100
-0.402668 -0.033552 0.253953 255 100 100
-0.381725 -0.232890 -0.141042 255 100 100
-0.192603 0.150422 0.140527 255 100 100
0.286278 0.161877 0.093332 255 100 100
0.150364 0.247192 -0.406830 255 100 100
-0.147349 -0.160611 0.380874 255 100 100
0.016544 0.102018 -0.300491 255 100 100
0.179032 -0.295058 -0.098843 255 100 100
-0.409783 0.107616 0.217877 255 100 100
0.605888 -0.286333 0.360075 255 100 100
0.195204 0.040619 -0.354071 255 100 100
0.502641 -0.153728 -0.099438 255 100 100
-0.027144 0.183469 -0.288099 255 100 100
-0.122625 -0.275671 0.188907 255 100 100
0.434201 -0.010113 -0.663909 255 100 100
-0.154977 0.250862 0.102874 255 100 100
-0.147323 -0.191437 -0.007372 255 100 100
-0.196919 0.096711 -0.231234 255 100 100
0.082661 -0.059794 -0.201294 255 100 100
-0.044462 -0.358699 0.032312 255 100 100
0.218702 0.342795 0.174227 255 100 100
0.023575 0.247745 0.174587 255 100 100
0.516456 -0.326671 0.001114 255 100 100
0.164852 -0.271403 -0.055202 255 100 100
0.294233 0.068686 0.082936 255 100 100
-0.454772 0.437200 0.316697 255 100 100
-0.237906 0.157827 0.625594 255 100 100
0.320063 -0.418155 0.021854 255 100 100
0.251039 -0.050530 -0.389840 255 100 100
0.067155 0.324322 0.318522 255 100 100
-0.184352 -0.260751 0.166148 255 100 100
0.365361 0.099607 -0.105606 255 100 100
0.232079 -0.156778 0.447020 255 100 100
-0.361336 0.032773 0.022202 255 100 100
0.112084 0.067216 -0.101502 255 100 100
-0.122735 -0.404675 -0.096157 255 100 100
-0.222645 0.470969 -0.014692 255 100 100
0.241135 -0.409839 0.457765 255 100 100
0.036512 -0.032938 -0.249682 255 100 100
-0.129440 -0.112267 0.197243 255 100 100
-0.049718 0.258221 0.390166 255 100 100
0.199364 -0.137967 0.211838 255 100 100
-0.129744 0.069545 -0.237050 255 100 100
-0.044730 0.175764 0.169829 255 100 100
0.393806 -0.139455 0.319803 255 100 100
-0.459985 0.011633 0.108298 255 100 100
-0.176038 0.134467 -0.140893 255 100 100
-0.111536 0.115664 -0.083618 255 100 100
-0.092281 0.187984 0.251925 255 100 100
-0.342886 0.144103 -0.636027 255 100 100
-0.120524 -0.048038 -0.132651 255 100 100
0.278817 -0.090077 -0.229021 255 100 100
-0.310430 0.334435 -0.068091 255 100 100
0.119003 0.277218 -0.013661 255 100 100
-0.046839 0.053647 0.196914 255 100 100
0.069917 -0.457533 -0.083923 255 100 100
0.333632 -0.109720 -0.115042 255 100 100
0.243173 0.164917 -0.011472 255 100 100
0.265345 0.038503 -0.145274 255 100 100
-0.358773 0.052301 0.025538 255 100 100
0.164079 0.014342 0.290442 255 100 100
0.212827 -0.054475 0.242253 255 100 100
-0.249974 -0.099237 0.099766 255 100 100
-0.142175 -0.214832 0.086783 255 100 100
-0.100742 0.328825 0.075062 255 100 100
0.233466 -0.473092 0.058830 255 100 100
0.199462 0.246970 -0.113716 255 100 100
0.068887 0.177526 0.404931 255 100 100
0.125471 -0.316990 -0.156027 255 100 100
0.198347 -0.320671 -0.102711 255 100 100
0.466504 -0.208839 0.221405 255 100 100
-0.345801 -0.131554 -0.140635 255 100 100
-0.160872 -0.217790 0.256345 255 100 100
0.050351 0.160332 -0.391901 255 100 100
-0.529746 -0.097040 0.019548 255 100 100
-0.146301 -0.254027 -0.083198 255 100 100
0.387058 -0.213023 0.432956 255 100 100
-0.121006 0.114734 0.457753 255 100 100
-0.041791 0.221119 0.228113 255 100 100
-0.042406 0.071929 0.088953 255 100 100
-0.290638 -0.320331 -0.440729 255 100 100
0.605431 -0.024428 -0.464276 255 100 100
-0.245199 0.091725 -0.542006 255 100 100
-0.290401 -0.188325 0.196752 255 100 100
-0.167626 0.235172 -0.145072 255 100 100
-0.174031 0.148589 0.151078 255 100 100
-0.130957 0.027714 -0.482764 255 100 100
0.067016 0.315999 -0.065579 255 100 100
-0.595368 0.207110 -0.281423 255 100 100
0.291005 0.177509 0.047755 255 100 100
0.005402 -0.242531 0.233736 255 100 100
0.480749 -0.364336 0.158407 255 100 100
0.025278 0.057108 0.096923 255 100 100
-0.162416 -0.321293 -0.161910 255 100 100
-0.294906 0.481318 0.170909 255 100 100
0.040051 0.206551 -0.322724 255 100 100
0.262828 -0.193533 -0.339225 255 100 100
-0.335999 0.565149 -0.089860 255 100 100
-0.193523 0.084385 0.056027 255 100 100
-0.419980 0.576109 0.016147 255 100 100
0.023581 -0.081555 -0.158603 255 100 100
0.214074 -0.260177 -0.029413 255 100 100
-0.134359 -0.410852 -0.040534 255 100 100
-0.073498 -0.401138 -0.152234 255 100 100
0.316093 -0.274860 0.347027 255 100 100
0.458302 -0.297203 0.157424 255 100 100
-0.147976 -0.684755 0.137029 255 100 100
-0.155914 0.174750 -0.500498 255 100 100
-0.163191 -0.063928 0.248711 255 100 100
0.308344 -0.062181 -0.225516 255 100 100
-0.010655 0.478949 0.283305 255 100 100
-0.140391 -0.003729 0.174296 255 100 100
0.130749 -0.166370 -0.226750 255 100 100
0.186707 -0.622138 0.088587 255 100 100
0.000502 0.239452 0.156206 255 100 100
-0.128049 -0.287916 0.207536 255 100 100
0.237265 -0.131411 0.094886 255 100 100
-0.086862 -0.296045 -0.076030 255 100 100
-0.171964 -0.342430 -0.089255 255 100 100
0.066407 0.339210 -0.553253 255 100 100
0.209829 0.098462 -0.232941 255 100 100
-0.268667 0.409393 0.139451 255 100 100
-0.039124 0.563495 -0.202076 255 100 100
0.067506 0.065474 -0.317790 255 100 100
0.078036 0.179218 -0.061350 255 100 100
-0.281915 -0.121875 0.405779 255 100 100
0.123043 0.138149 -0.235870 255 100 100
0.158351 0.306928 -0.298757 255 100 100
0.494933 -0.070674 -0.180567 255 100 100
0.250849 0.261797 0.496888 255 100 100
0.217007 0.097785 0.735416 255 100 100
0.313100 0.540555 -0.203551 255 100 100
-0.076335 0.279303 0.046479 255 100 100
0.133648 0.208130 -0.027713 255 100 100
-0.104290 0.154632 -0.059497 255 100 100
-0.189631 -0.697730 -0.409543 255 100 100
0.170708 -0.187261 -0.553878 255 100 100
0.107203 0.341228 -0.175725 255 100 100
0.127970 -0.049818 -0.371004 255 100 100
-0.273439 -0.241095 0.037837 255 100 100
0.051075 -0.378770 0.370425 255 100 100
-0.081251 -0.025171 0.286039 255 100 100
0.550649 -0.070138 -0.154538 255 100 100
0.265274 -0.067414 -0.002242 255 100 100
0.049940 -0.171867 -0.152266 255 100 100
0.035699 -0.110849 -0.151882 255 100 100
0.434433 -0.328978 0.179408 255 100 100
0.080241 0.038770 0.071935 255 100 100
-0.090598 -0.250549 -0.057459 255 100 100
-0.095118 0.209729 0.116343 255 100 100
0.517107 0.177205 -0.146083 255 100 100
0.314467 -0.051449 -0.159195 255 100 100
0.323403 0.365823 0.029915 255 100 100
0.302301 -0.274529 -0.068046 255 100 100
-0.018708 -0.067944 0.025755 255 100 100
-0.216086 -0.086999 0.204237 255 100 100
0.169985 -0.321173 -0.199059 255 100 100
-0.113357 -0.072930 -0.181667 255 100 100
0.252029 -0.507825 0.155246 255 100 100
0.456702 0.050497 0.056096 255 100 100
0.070352 -0.022739 -0.274957 255 100 100
0.142420 -0.357702 0.059846 255 100 100
0.382929 -0.362757 0.173204 255 100 100
-0.102694 0.294240 -0.051472 255 100 100
0.203012 -0.144659 0.237651 255 100 100
0.042851 -0.223201 0.119715 255 100 100
0.179937 -0.126627 -0.102718 255 100 100
-0.145093 0.071951 -0.384940 255 100 100
0.407019 0.089723 0.180255 255 100 100
0.080305 0.749955 0.004996 255 100 100
-0.151967 0.162170 0.293631 255 100 100
-0.149592 0.117841 0.241793 255 100 100
-0.129895 0.293319 -0.591521 255 100 100
0.321940 0.235099 -0.231759 255 100 100
0.260260 0.044674 0.326081 255 100 100
0.087529 0.292610 -0.043646 255 100 100
-0.148016 0.114596 0.186691 255 100 100
-0.298760 0.074445 0.359777 255 100 100
-0.015888 0.425251 0.011569 255 100 100
-0.065512 -0.258947 0.159901 255 100 100
0.071933 -0.011943 0.206018 255 100 100
0.133663 0.410708 -0.139541 255 100 100
-0.549882 0.448636 0.427778 255 100 100
0.047102 0.093294 0.250004 255 100 100
0.332358 0.165510 -0.328041 255 100 100
-0.095487 0.361160 -0.101051 255 100 100
0.045421 0.155121 -0.023455 255 100 100
0.231296 -0.251376 0.111437 255 100 100
0.266046 -0.029966 0.202505 255 100 100
0.253986 0.265924 -0.237934 255 100 100
0.436063 0.053597 -0.095876 255 100 100
-0.019643 -0.230029 0.438038 255 100 100
0.444289 0.470768 -0.105394 255 100 100
0.246895 0.102392 0.107487 255 100 100
-0.068568 0.239356 -0.190399 255 100 100
0.012138 0.065653 -0.185048 255 100 100
-0.359083 0.121627 0.149931 255 100 100
0.027893 0.275448 0.217286 255 100 100
0.042059 -0.197231 0.043653 255 100 100
0.171263 -0.028795 -0.125431 255 100 100
-0.049221 -0.045127 -0.160321 255 100 100
-0.304984 -0.163043 0.123356 255 100 100
-0.180305 -0.208927 -0.604648 255 100 100
-0.270340 -0.060334 0.016806 255 100 100
0.073557 -0.237369 0.128460 255 100 100
0.147338 0.207052 0.113817 255 100 100
0.366925 -0.189007 -0.274616 255 100 100
0.078648 -0.002038 0.089907 255 100 100
-0.572860 0.039306 -0.041293 255 100 100
0.102360 -0.123909 -0.184456 255 100 100
-0.192094 -0.205450 0.071515 255 100 100
0.232288 0.655626 0.394537 255 100 100
-0.062175 0.025709 0.356551 255 100 100
-0.050705 -0.066987 0.049663 255 100 100
-0.081285 0.380003 0.069912 255 100 100
0.061941 -0.214883 -0.110638 255 100 100
0.394353 -0.151584 0.134650 255 100 100
0.377584 0.443856 -0.068082 255 100 100
0.012190 -0.051535 0.216215 255 100 100
0.288694 0.194189 -0.040271 255 100 100
0.133180 -0.077573 -0.178035 255 100 100
0.265594 -0.339045 -0.082044 255 100 100
0.009931 -0.291680 -0.132314 255 100 100
0.092597 -0.303040 0.142658 255 100 100
0.205934 -0.135091 -0.039444 255 100 100
-0.380613 0.472531 -0.120816 255 100 100
-0.247677 0.050218 0.092300 255 100 100
-0.115490 -0.097564 -0.100658 255 100 100
-0.448310 0.046098 0.564395 255 100 100
0.116248 -0.025825 0.081656 255 100 100
-0.259310 -0.356065 -0.404631 255 100 100
0.266458 0.258251 -0.363469 255 100 100
0.050312 -0.140408 0.031401 255 100 100
-0.021276 -0.519944 0.272841 255 100 100
0.032727 -0.192205 -0.002219 255 100 100
0.034149 0.395010 -0.247092 255 100 100
0.118258 0.085851 -0.147208 255 100 100
-0.043928 -0.327320 -0.007758 255 100 100
0.140283 0.160710 0.354542 255 100 100
-0.366107 0.069542 0.256458 255 100 100
0.134144 -0.156704 -0.080601 255 100 100
0.372394 0.087145 0.120050 255 100 100
0.103212 -0.088715 -0.101905 255 100 100
0.097505 0.066833 0.020007 255 100 100
-0.135958 -0.234827 0.079131 255 100 100
0.016703 0.339830 0.100648 255 100 100
-0.269383 0.512110 0.297796 255 100 100
-0.053484 -0.039752 -0.027290 255 100 100
0.052630 0.227940 -0.083570 255 100 100
0.079465 -0.269737 -0.222848 255 100 100
-0.260218 -0.113390 -0.038797 255 100 100
-0.030650 0.168062 -0.047322 255 100 100
0.072019 0.107427 0.122912 255 100 100
-0.149028 -0.118407 0.256043 255 100 100
0.044415 0.031312 -0.261221 255 100 100
-0.112341 -0.087250 -0.127644 255 100 100
-0.031505 0.083639 -0.025042 255 100 100
0.188066 -0.465578 0.098345 255 100 100
-0.102314 -0.649967 0.054043 255 100 100
0.021707 0.239471 0.052807 255 100 100
0.000969 0.012265 0.432037 255 100 100
-0.111670 0.171006 -0.091017 255 100 100
0.080792 -0.316360 0.086872 255 100 100
-0.411935 -0.028670 -0.191826 255 100 100
-0.293872 -0.132998 0.284658 255 100 100
0.018519 -0.110460 -0.499046 255 100 100
-0.024993 -0.239019 -0.007487 255 100 100
-0.143052 -0.568938 0.367803 255 100 100
-0.477311 0.279769 0.174979 255 100 100
0.125287 -0.080311 0.135844 255 100 100
-0.244397 0.017542 0.075866 255 100 100
0.020642 -0.032226 0.054037 255 100 100
-0.114103 0.148126 0.410464 255 100 100
0.016090 0.091350 0.095943 255 100 100
0.126277 0.150686 -0.215643 255 100 100
-0.115753 -0.216353 -0.201337 255 100 100
-0.346188 0.071367 0.172363 255 100 100
0.212313 -0.160895 -0.164391 255 100 100
-0.206299 -0.287378 0.092809 255 100 100
0.107594 0.372144 -0.211244 255 100 100
0.234739 -0.306798 0.042992 255 100 100
0.037739 -0.338863 -0.370932 255 100 100
0.105800 0.213493 -0.235633 255 100 100
0.311490 -0.341154 -0.231673 255 100 100
0.284293 0.068757 -0.312806 255 100 100
-0.022019 0.190129 -0.259348 255 100 100
-0.334996 -0.045060 -0.178074 255 100 100
-0.011156 0.180981 0.115071 255 100 100
-0.312297 0.085402 0.027681 255 100 100
-0.156547 -0.112286 -0.064549 255 100 100
0.565964 0.383408 0.334203 255 100 100
-0.157654 -0.233581 0.259099 255 100 100
0.212512 0.159185 -0.150615 255 100 100
-0.072144 0.069694 -0.087388 255 100 100
-0.154297 -0.078246 -0.397969 255 100 100
-0.149016 0.326327 0.370754 255 100 100
0.427402 -0.220941 0.095132 255 100 100
0.081755 -0.341972 -0.086620 255 100 100
0.067780 0.128389 -0.066886 255 100 100
0.163591 0.267950 -0.077167 255 100 100
-0.124344 0.298363 -0.305671 255 100 100
-0.066356 -0.018182 0.041002 255 100 100
0.076094 -0.352391 -0.236849 255 100 100
0.447569 0.034821 0.398203 255 100 100
-0.296948 -0.025101 0.031748 255 100 100
0.037010 0.199250 -0.145597 255 100 100
-0.435249 0.264996 0.044164 255 100 100
0.186247 -0.126279 -0.267811 255 100 100
0.114558 -0.231718 0.151237 255 100 100
0.052983 0.357514 -0.056585 255 100 100
0.133381 0.364491 -0.302510 255 100 100
0.103067 -0.174694 0.513922 255 100 100
-0.069821 0.423784 -0.145495 255 100 100
-0.280544 -0.363188 -0.104157 255 100 100
-0.031711 -0.200424 -0.038761 255 100 100
0.173909 -0.128556 0.635984 255 100 100
-0.176113 0.222016 0.280855 255 100 100
0.236067 -0.110224 -0.029036 255 100 100
-0.100266 -0.424556 0.435524 255 100 100
-0.136616 0.315289 -0.246441 255 100 100
-0.266374 0.222077 -0.148660 255 100 100
-0.222806 0.562140 0.299517 255 100 100
0.049229 0.271142 0.040195 255 100 100
0.267889 0.347794 0.111103 255 100 100
-0.308682 -0.015750 0.184047 255 100 100
-0.020089 -0.207345 -0.060150 255 100 100
0.156503 -0.149719 0.162300 255 100 100
-0.287821 0.100522 0.135119 255 100 100
0.306087 -0.233555 0.107780 255 100 100
-0.176755 0.239466 0.220766 255 100 100
-0.144167 -0.530917 -0.008847 255 100 100
0.025866 0.197201 -0.148008 255 100 100
-0.079217 -0.076818 0.203602 255 100 100
-0.082008 -0.093165 -0.029583 255 100 100
0.184949 -0.107497 0.029144 255 100 100
0.110440 0.205829 0.129983 255 100 100
0.058251 0.015562 0.047372 255 100 100
0.416851 -0.386237 0.095595 255 100 100
0.074070 -0.093269 -0.549960 255 100 100
-0.049653 0.140524 -0.275128 255 100 100
0.451399 0.251591 -0.128194 255 100 100
0.016454 0.178418 0.103640 255 100 100
0.160020 0.072976 -0.077524 255 100 100
0.068918 0.365302 -0.291506 255 100 100
-0.324292 0.424521 -0.327951 255 100 100
0.428015 0.145505 0.483855 255 100 100
-0.020011 0.181755 0.288180 255 100 100
0.486608 -0.139192 -0.043531 255 100 100
0.284914 -0.100167 0.008193 255 100 100
-0.356764 -0.007459 0.071031 255 100 100
0.041090 0.258129 -0.049439 255 100 100
0.131402 0.017023 0.113143 255 100 100
0.002579 -0.025712 -0.335981 255 100 100
0.137738 -0.010069 0.274915 255 100 100
0.060773 0.385204 0.440444 255 100 100
-0.156733 -0.056320 0.092662 255 100 100
-0.311681 0.223040 0.101378 255 100 100
0.041402 0.120198 0.022585 255 100 100
-0.202296 -0.290740 -0.295805 255 100 100
-0.258258 -0.076167 0.313277 255 100 100
0.084121 0.409394 -0.067072 255 100 100
-0.235711 0.090995 0.219520 255 100 100
-0.057508 -0.161277 0.061311 255 100 100
-0.247865 -0.406588 0.299504 255 100 100
0.074818 -0.169188 -0.063924 255 100 100
0.039540 -0.205799 0.463095 255 100 100
0.308732 0.182877 0.033238 255 100 100
0.245904 -0.157876 0.120964 255 100 100
0.014204 -0.102292 -0.027232 255 100 100
0.003893 -0.526893 0.037673 255 100 100
0.088106 0.010352 -0.126892 255 100 100
0.192082 -0.092343 0.399178 255 100 100
0.368831 0.046865 0.119301 255 100 100
-0.065112 0.365818 -0.042024 255 100 100
0.366461 0.303478 0.154675 255 100 100
-0.319292 -0.309756 0.075633 255 100 100
-0.107038 0.157773 0.140733 255 100 100
-0.007406 0.023719 0.125596 255 100 100
-0.100782 0.052062 0.039015 255 100 100
0.055593 0.102316 0.127912 255 100 100
0.280868 0.098516 0.439524 255 100 100
0.043036 -0.025123 -0.372303 255 100 100
0.071633 -0.101485 0.133158 255 100 100
0.037576 -0.400207 -0.540354 255 100 100
0.054667 -0.374797 -0.060164 255 100 100
0.048374 0.050469 0.004539 255 100 100
-0.341399 0.025041 -0.535848 255 100 100
0.310407 -0.008459 -0.162135 255 100 100
-0.109037 0.183807 -0.052437 255 100 100
-0.167906 -0.314075 0.210907 255 100 100
-0.047370 -0.660857 -0.043694 255 100 100
-0.165333 0.098642 0.123575 255 100 100
0.040534 0.116505 0.123060 255 100 100
0.538488 0.273269 0.024418 255 100 100
-0.120405 0.150490 -0.494823 255 100 100
0.724391 -0.244006 0.254246 255 100 100
0.020860 0.521452 -0.054849 255 100 100
0.182514 -0.122941 -0.013705 255 100 100
-0.040922 0.164500 0.064681 255 100 100
0.104964 -0.045727 -0.175285 255 100 100
-0.078669 -0.073840 0.246148 255 100 100
-0.040126 0.290529 0.057357 255 100 100
-0.162967 0.337643 -0.023068 255 100 100
0.292203 0.623777 0.496704 255 100 100
0.289624 -0.202171 -0.193315 255 100 100
-0.018956 -0.101770 -0.136675 255 100 100
0.142367 -0.255326 0.309783 255 100 100
0.045495 0.255574 -0.277593 255 100 100
0.129794 0.143230 0.028836 255 100 100
-0.273208 0.378970 0.121835 255 100 100
0.267795 0.147320 0.331234 255 100 100
0.225221 0.027088 0.176331 255 100 100
0.233215 -0.147243 -0.006680 255 100 100
0.142182 -0.182940 0.171800 255 100 100
0.162104 0.250550 0.074889 255 100 100
0.347582 -0.307476 -0.239456 255 100 100
0.217987 0.050624 0.453407 255 100 100
-0.111363 -0.342835 -0.119244 255 100 100
-0.183635 -0.166261 0.103264 255 100 100
0.148076 -0.427927 -0.187274 255 100 100
0.046166 -0.092057 -0.210787 255 100 100
-0.087728 -0.396951 0.160157 255 100 100
-0.244872 -0.035885 0.241945 255 100 100
0.106951 -0.090547 0.330733 255 100 100
-0.055680 -0.061949 -0.180154 255 100 100
0.336810 -0.347598 0.142731 255 100 100
-0.184882 -0.239949 -0.073828 255 100 100
0.335619 -0.014999 -0.110021 255 100 100
-0.303652 -0.168762 -0.237006 255 100 100
-0.141296 0.602356 0.279361 255 100 100
0.176000 0.178071 0.294302 255 100 100
0.147854 0.303934 -0.010613 255 100 100
-0.157060 0.087745 0.033132 255 100 100
-0.076836 0.637553 -0.420090 255 100 100
0.078008 -0.257649 0.093770 255 100 100
-0.073742 -0.316973 0.019951 255 100 100
0.078736 0.331028 -0.187053 255 100 100
-0.107113 0.134337 -0.312840 255 100 100
-0.115375 -0.021247 0.410705 255 100 100
-0.032285 -0.510472 0.398784 255 100 100
0.522485 -0.175328 0.071182 255 100 100
0.195927 -0.329525 -0.040636 255 100 100
-0.059796 -0.138262 -0.018765 255 100 100
0.214738 0.013323 0.050230 255 100 100
0.089281 -0.334296 -0.050595 255 100 100
-0.246050 -0.121538 0.186619 255 100 100
-0.085951 -0.127313 0.305762 255 100 100
-0.248861 0.102833 0.109149 255 100 100
-0.057005 -0.477310 0.217814 255 100 100
-0.344298 -0.086417 -0.103921 255 100 100
-0.159459 0.108883 -0.403961 255 100 100
-0.071364 0.019186 -0.031592 255 100 100
0.190286 0.044587 -0.067648 255 100 100
0.301447 0.184535 -0.101483 255 100 100
-0.109379 -0.003884 0.397625 255 100 100
0.470009 0.028404 0.025452 255 100 100
-0.176457 -0.222365 -0.384358 255 100 100
-0.170163 0.030383 -0.344016 255 100 100
0.002990 0.232187 0.030531 255 100 100
-0.110343 0.297919 -0.231498 255 100 100
-0.179052 0.454740 -0.135976 255 100 100
0.174060 0.077769 0.315082 255 100 100
-0.118949 -0.288642 -0.110317 255 100 100
-0.150300 -0.469465 0.300963 255 100 100
0.072419 -0.085738 -0.089687 255 100 100
-0.043625 0.011514 0.374726 255 100 100
-0.110547 -0.181511 0.112292 255 100 100
0.177163 -0.190408 -0.131615 255 100 100
-0.057535 -0.074775 0.065199 255 100 100
-0.083150 0.325671 0.071249 255 100 100
0.158025 -0.372002 -0.271444 255 100 100
0.276097 0.019857 0.200166 255 100 100
-0.240994 0.071598 0.210758 255 100 100
-0.169802 -0.166603 0.131360 255 100 100
0.155767 0.132400 -0.212214 255 100 100
0.031096 0.543092 0.071580 255 100 100
0.060897 0.083963 -0.162557 255 100 100
