ply
format ascii 1.0
element vertex 1180
property float x
property float y
property float z
property uchar red
property uchar green
property uchar blue
end_header
-0.019904 -0.134717 -0.065301 255 100 100
-0.146710 -0.016877 -0.384678 255 100 100
0.143545 -0.194745 0.000824 255 100 100
0.115875 0.336029 0.041700 255 100 100
0.345365 -0.317715 -0.197933 255 100 100
0.259367 -0.080956 -0.087570 255 100 100
0.264920 -0.073336 -0.049051 255 100 100
0.268897 0.142039 0.461926 255 100 100
-0.195915 -0.030747 0.442966 255 100 100
0.174643 0.537651 -0.104409 255 100 100
-0.052147 -0.004281 0.213662 255 100 100
-0.477903 0.383048 -0.249780 255 100 100
-0.121509 -0.012329 -0.297367 255 100 100
0.286076 0.194030 -0.002611 255 100 100
-0.211063 0.390753 0.120977 255 100 100
-0.017696 -0.337362 0.318563 255 100 100
-0.089325 -0.146958 -0.095445 255 100 100
-0.060641 0.384204 0.308727 255 100 100
0.161286 0.415512 -0.609190 255 100 100
0.151185 -0.107266 -0.041552 255 100 100
0.104980 0.040566 0.123313 255 100 100
0.076762 0.089849 -0.189622 255 100 100
0.045004 -0.266278 0.334635 255 100 100
0.125243 0.047208 -0.270612 255 100 100
-0.455227 0.015583 0.247298 255 100 100
-0.268445 0.083613 0.382312 255 100 100
-0.260962 -0.336340 -0.083098 255 100 100
0.322871 -0.213870 -0.127495 255 100 100
0.008897 -0.370094 0.097048 255 100 100
-0.115689 -0.074658 0.226404 255 100 100
0.270318 0.126671 -0.037545 255 100 100
-0.031479 -0.100060 0.046615 255 100 100
-0.178005 0.547171 -0.047912 255 100 100
-0.038924 -0.027223 -0.138089 255 100 100
0.099608 0.002927 0.322020 255 100 100
-0.232250 -0.394807 0.171318 255 100 100
-0.092572 -0.151179 0.064136 255 100 100
-0.052095 -0.151533 -0.008398 255 100 100
-0.322741 0.054461 0.018129 255 100 100
0.039436 0.129380 -0.203010 255 100 100
0.003452 0.083898 0.070078 255 100 100
0.251275 -0.004149 -0.083604 255 100 100
-0.205937 -0.258955 0.015279 255 100 100
-0.128795 0.340429 0.050532 255 100 100
-0.364667 -0.285031 -0.149888 255 100 100
-0.108538 0.347889 -0.009280 255 100 100
-0.052280 -0.083039 0.350813 255 100 100
-0.359580 0.118649 0.484861 255 100 100
0.438933 0.250627 -0.024595 255 100 100
-0.258630 -0.246488 0.011248 255 100 100
0.112418 0.109618 0.343634 255 100 100
-0.020091 0.236383 -0.192963 255 100 100
0.003844 -0.043233 -0.282345 255 100 100
-0.179841 -0.112846 0.218555 255 100 100
0.227038 -0.396235 0.071624 255 100 100
-0.162659 0.240630 0.014447 255 100 100
0.268592 0.335424 -0.557553 255 100 100
0.127588 -0.137563 -0.254770 255 100 100
-0.389888 0.196616 0.279799 255 100 100
-0.393957 -0.248589 -0.155668 255 100 100
0.080954 -0.020420 0.354091 255 100 100
0.377706 -0.398354 0.446352 255 100 100
-0.417502 0.104311 0.106237 255 100 100
-0.053532 -0.390572 -0.098721 255 100 100
-0.103271 0.168687 0.074106 255 100 100
0.011351 0.053509 0.284361 255 100 100
0.115586 0.042018 0.558214 255 100 100
-0.033765 0.166265 0.121248 255 100 100
-0.061625 0.088773 -0.122321 255 100 100
-0.032226 -0.616924 -0.116936 255 100 100
0.111250 -0.155485 0.387358 255 100 100
-0.150277 0.168150 0.349187 255 100 100
-0.085421 -0.193524 -0.015307 255 100 100
-0.272782 0.046400 -0.092432 255 100 100
0.046424 -0.204902 0.502196 255 100 100
0.215690 0.156492 0.453426 255 100 100
0.194455 -0.411187 -0.206315 255 100 100
-0.295173 -0.309402 -0.288614 255 100 100
-0.084236 0.156276 -0.208778 255 100 100
-0.255564 -0.285798 0.213141 255 100 100
0.144265 -0.075558 -0.089092 255 100 100
0.163901 -0.178275 -0.230544 255 100 100
-0.181904 0.303788 0.440955 255 100 100
0.135779 0.051054 0.051657 255 100 100
0.239593 -0.264449 -0.335912 255 100 100
0.158879 0.241258 -0.172723 255 100 100
0.083396 0.069305 -0.679056 255 100 100
0.036832 0.471250 -0.042698 255 100 100
0.067911 -0.131446 0.345363 255 100 100
-0.128564 -0.164197 0.515915 255 100 100
0.412660 -0.526633 -0.130628 255 100 100
0.073739 -0.029472 -0.141656 255 100 100
0.160693 -0.247007 0.216392 255 100 100
-0.424757 0.027358 0.126835 255 100 100
0.243013 0.613724 -0.048095 255 100 100
0.177613 -0.039480 -0.007008 255 100 100
-0.175209 0.060233 0.271470 255 100 100
-0.109622 -0.110293 0.055535 255 100 100
-0.087257 -0.022984 -0.573040 255 100 100
-0.367164 -0.433441 -0.004107 255 100 100
0.000475 -0.255254 -0.180688 255 100 100
-0.061335 -0.247397 0.016851 255 100 100
-0.134292 -0.155090 0.009367 255 100 100
-0.031094 0.042520 -0.005650 255 100 100
0.203802 -0.262990 -0.213565 255 100 100
0.308270 0.143544 0.028816 255 100 100
-0.081116 0.097374 0.247308 255 100 100
0.000014 -0.140462 -0.045186 255 100 100
-0.298220 0.345980 0.066880 255 100 100
-0.240336 0.032770 0.115130 255 100 100
-0.034286 0.124883 -0.106744 255 100 100
0.361277 0.033458 0.360918 255 100 100
0.228662 0.387758 -0.124423 255 100 100
0.031653 0.270579 -0.485515 255 100 100
0.049616 0.169791 0.178716 255 100 100
-0.182296 -0.071290 -0.092785 255 100 100
0.186877 0.019599 -0.028190 255 100 100
0.291193 -0.393211 -0.094511 255 100 100
-0.083820 0.128699 -0.119597 255 100 100
0.480432 -0.257051 -0.113503 255 100 100
0.455690 -0.461162 -0.032769 255 100 100
0.227263 -0.276661 -0.073066 255 100 100
-0.114642 -0.125762 0.440724 255 100 100
0.165816 0.137366 -0.355932 255 100 100
-0.018758 0.114148 -0.194207 255 100 100
-0.192230 -0.111283 -0.626018 255 100 100
0.133179 -0.040862 -0.241032 255 100 100
-0.533262 0.161225 0.133773 255 100 100
0.047455 -0.060026 0.139865 255 100 100
-0.079465 0.444015 0.180522 255 100 100
0.099095 -0.080782 -0.144499 255 100 100
-0.234478 0.286036 0.360057 255 100 100
-0.074836 0.217489 -0.135718 255 100 100
0.122340 0.137150 -0.047179 255 100 100
0.045783 -0.045071 0.015099 255 100 100
-0.276655 -0.152580 -0.238611 255 100 100
0.238604 -0.461630 -0.030011 255 100 100
0.113208 -0.401103 -0.287631 255 100 100
-0.028734 0.158491 0.474990 255 100 100
0.308773 -0.435888 0.077838 255 100 100
-0.212310 -0.199242 -0.267448 255 100 100
-0.239743 0.260940 -0.493851 255 100 100
-0.527094 0.173032 -0.090562 255 100 100
0.050089 0.115298 -0.308046 255 100 100
0.188558 0.086855 0.282988 255 100 100
0.167806 -0.173923 -0.264191 255 100 100
-0.270827 0.019014 0.301227 255 100 100
-0.023944 0.292057 -0.215051 255 100 100
-0.063153 -0.106047 -0.129986 255 100 100
-0.171197 -0.078021 -0.117086 255 100 100
0.011667 -0.372671 -0.191001 255 100 100
-0.169217 0.063641 0.170490 255 100 100
-0.279577 -0.016928 -0.171443 255 100 100
0.378927 0.299448 -0.136080 255 100 100
-0.129476 -0.097131 -0.116808 255 100 100
0.046797 0.404277 0.225949 255 100 100
0.249525 -0.046157 -0.235767 255 100 100
0.062697 -0.080989 -0.293245 255 100 100
0.146221 0.079888 0.184949 255 100 100
-0.277467 0.165972 0.098340 255 100 100
0.066729 0.430583 -0.010013 255 100 100
-0.581766 0.076149 0.034231 255 100 100
-0.107972 0.129516 0.009583 255 100 100
0.342593 0.052870 -0.032183 255 100 100
-0.116869 0.327257 -0.007370 255 100 100
-0.182320 -0.176160 -0.264027 255 100 100
-0.264368 -0.096429 -0.046106 255 100 100
0.219303 -0.056444 -0.554531 255 100 100
-0.042190 -0.098033 -0.185582 255 100 100
0.147307 0.068291 0.094691 255 100 100
-0.033386 -0.264140 -0.185982 255 100 100
-0.188927 -0.160735 -0.204892 255 100 100
0.038359 -0.042985 0.032893 255 100 100
-0.307631 0.301352 -0.125268 255 100 100
-0.023832 0.202096 0.048618 255 100 100
-0.014429 -0.274026 -0.011791 255 100 100
-0.408836 0.031314 0.194281 255 100 100
0.351337 -0.182826 -0.499203 255 100 100
-0.498204 -0.501798 0.374112 255 100 100
0.039230 0.100109 0.084505 255 100 100
-0.504988 0.082701 -0.142555 255 100 100
-0.272609 0.238171 0.061957 255 100 100
-0.142171 -0.033457 -0.220746 255 100 100
-0.281794 -0.157158 0.179972 255 100 100
-0.033340 -0.056605 -0.103310 255 100 100
0.116603 0.007767 0.138495 255 100 100
0.146285 -0.030147 0.200148 255 100 100
0.171905 -0.084426 -0.012244 255 100 100
0.127535 -0.177325 0.077760 255 100 100
0.067615 -0.464177 0.107582 255 100 100
0.272728 -0.284746 0.284777 255 100 100
0.260876 0.041255 0.442922 255 100 100
0.051746 0.364044 0.070392 255 100 100
0.097853 -0.158711 -0.178844 255 100 100
0.372929 -0.063642 -0.120583 255 100 100
-0.161959 -0.337001 0.346560 255 100 100
-0.003322 -0.288351 -0.121900 255 100 100
0.242424 -0.101175 0.332435 255 100 100
0.271642 -0.202925 0.156220 255 100 100
-0.225231 0.095655 -0.146450 255 100 100
-0.182098 -0.350799 -0.249012 255 100 100
0.276434 -0.118794 -0.010131 255 100 100
0.504923 0.294406 0.140625 255 100 100
0.190838 -0.197787 -0.237224 255 100 100
0.389440 0.069412 0.295267 255 100 100
-0.043979 0.341006 -0.268884 255 100 100
-0.368967 0.048543 0.131316 255 100 100
0.189520 -0.399978 0.214087 255 100 100
-0.053574 0.275438 -0.036562 255 100 100
0.293603 0.167568 0.118080 255 100 100
0.133573 0.453260 -0.154741 255 100 100
0.056173 -0.030942 0.267818 255 100 100
-0.166018 -0.201693 0.297150 255 100 100
-0.419864 -0.119268 -0.335995 255 100 100
0.073154 0.608087 -0.004250 255 100 100
0.154590 0.040188 0.052574 255 100 100
0.184601 0.309862 -0.049847 255 100 100
0.055140 0.252109 0.111279 255 100 100
0.141022 0.185059 0.377979 255 100 100
-0.069923 -0.562713 -0.054613 255 100 100
0.296359 -0.002645 -0.009708 255 100 100
0.055211 0.428470 0.657748 255 100 100
0.251454 0.384685 -0.058541 255 100 100
0.068308 0.014619 0.178384 255 100 100
-0.075591 -0.014879 -0.345327 255 100 100
0.080825 -0.286539 0.009854 255 100 100
0.176481 0.032185 0.191728 255 100 100
0.402579 0.143067 -0.140343 255 100 100
-0.131478 0.158156 -0.133296 255 100 100
0.010599 0.414295 0.004327 255 100 100
0.351093 -0.120951 -0.197775 255 100 100
0.121222 -0.132735 -0.557939 255 100 100
-0.124702 -0.264773 -0.152393 255 100 100
0.071397 -0.523215 0.210299 255 100 100
0.159410 0.067642 -0.130805 255 100 100
0.273636 -0.029167 0.124473 255 100 100
0.202988 -0.079063 0.043015 255 100 100
-0.077634 -0.049922 -0.212657 255 100 100
-0.116642 0.387648 0.093358 255 100 100
0.000080 0.218304 -0.347423 255 100 100
-0.059060 0.150359 -0.001510 255 100 100
0.668226 -0.242624 0.160564 255 100 100
-0.324396 -0.139623 -0.106835 255 100 100
0.037774 0.292651 -0.053006 255 100 100
0.032217 -0.410464 -0.324565 255 100 100
0.054469 0.175824 -0.175703 255 100 100
0.171296 0.033761 -0.246141 255 100 100
-0.244375 0.000350 -0.045321 255 100 100
0.028187 -0.148667 -0.089657 255 100 100
-0.652543 -0.112045 0.110324 255 100 100
0.125313 -0.269715 0.153212 255 100 100
0.312829 0.092481 -0.042479 255 100 100
-0.559591 -0.104837 0.161122 255 100 100
-0.261717 0.381298 -0.075660 255 100 100
-0.000605 0.162111 0.009926 255 100 100
-0.292447 0.038725 0.003420 255 100 100
-0.355889 0.623581 -0.314490 255 100 100
0.177545 0.163394 0.077445 255 100 100
-0.101517 0.176202 0.101453 255 100 100
0.206341 -0.175269 -0.031583 255 100 100
0.050128 -0.157323 -0.217375 255 100 100
0.049499 -0.148306 0.254092 255 100 100
-0.122681 0.256145 0.175747 255 100 100
0.199043 -0.543524 0.412376 255 100 100
0.071083 -0.128175 0.308129 255 100 100
0.060850 0.009096 0.060760 255 100 100
-0.199361 -0.178072 -0.248567 255 100 100
-0.244829 0.320071 -0.112462 255 100 100
0.150577 -0.078211 -0.040624 255 100 100
-0.111655 -0.353697 0.099368 255 100 100
-0.195493 0.268327 0.208175 255 100 100
-0.235179 0.134445 0.185488 255 100 100
0.068744 0.002202 0.048363 255 100 100
-0.016088 0.332946 0.043152 255 100 100
-0.141006 0.193760 0.393418 255 100 100
0.316365 0.215677 -0.046388 255 100 100
-0.074663 -0.623654 -0.070121 255 100 100
-0.125738 0.003077 -0.318920 255 100 100
0.121425 0.228507 0.124525 255 100 100
-0.025205 -0.303856 -0.240054 255 100 100
0.432804 0.135160 -0.058693 255 100 100
-0.353356 0.216257 -0.133202 255 100 100
-0.020175 0.069409 0.014557 255 100 100
0.153161 -0.173570 -0.075477 255 100 100
-0.030363 -0.165626 -0.015632 255 100 100
-0.304997 -0.193219 0.008107 255 100 100
0.135677 -0.247665 0.029942 255 100 100
0.104538 -0.074363 -0.251857 255 100 100
-0.283978 0.127001 0.073842 255 100 100
-0.012243 0.098470 0.341481 255 100 100
0.176056 0.168291 -0.409730 255 100 100
0.048705 -0.143616 0.054271 255 100 100
0.165990 0.283140 0.033967 255 100 100
-0.085540 -0.065888 -0.395698 255 100 100
0.139333 0.019528 -0.013250 255 100 100
0.170370 0.136529 -0.162214 255 100 100
-0.161248 0.125908 -0.205837 255 100 100
0.341318 0.051793 -0.212787 255 100 100
0.230146 0.055222 0.332503 255 100 100
-0.131648 0.487826 -0.532665 255 100 100
0.272277 0.084519 0.087820 255 100 100
0.045687 -0.219809 0.225920 255 100 100
0.144304 0.304880 0.057735 255 100 100
0.202252 -0.058461 0.098857 255 100 100
0.217235 -0.257784 -0.441660 255 100 100
-0.445520 0.278486 0.295024 255 100 100
0.049279 0.086602 0.201968 255 100 100
-0.124065 0.004646 -0.150944 255 100 100
-0.188145 0.141834 0.053189 255 100 100
-0.277562 -0.036205 -0.089052 255 100 100
0.426831 0.259303 -0.112176 255 100 100
0.061990 -0.140509 -0.153807 255 100 100
0.312739 0.131661 -0.210047 255 100 100
0.450985 -0.418925 0.179270 255 100 100
0.185495 -0.481531 0.251070 255 100 100
0.007662 0.249668 0.447147 255 100 100
0.341184 -0.355016 0.078584 255 100 100
0.052153 -0.257847 -0.176540 255 100 100
-0.142183 -0.252291 0.401458 255 100 100
-0.147282 0.181753 0.224359 255 100 100
-0.122833 0.007515 -0.084694 255 100 100
0.071390 0.287430 0.195897 255 100 100
0.066939 0.232241 -0.099872 255 100 100
-0.170687 0.082597 -0.054518 255 100 100
-0.146866 0.514655 0.124378 255 100 100
-0.156484 -0.040559 0.106178 255 100 100
0.308434 -0.199323 0.278296 255 100 100
0.035983 0.275683 -0.133837 255 100 100
0.122334 0.030108 -0.369753 255 100 100
-0.384875 -0.158422 0.638458 255 100 100
0.010151 -0.413399 -0.312971 255 100 100
0.014422 -0.100375 -0.080841 255 100 100
-0.163269 0.299214 0.162866 255 100 100
0.120729 -0.331875 0.113188 255 100 100
0.331517 -0.148388 0.529427 255 100 100
-0.214762 -0.039575 -0.426254 255 100 100
-0.052070 -0.221443 0.004416 255 100 100
-0.649316 0.098670 0.010801 255 100 100
-0.089510 -0.090037 -0.284089 255 100 100
0.069299 0.271768 -0.202264 255 100 100
-0.022833 0.524470 0.172667 255 100 100
0.257588 0.118537 -0.211640 255 100 100
-0.133711 -0.244462 0.034865 255 100 100
-0.004051 -0.323691 -0.245483 255 100 100
-0.377813 0.086272 -0.471389 255 100 100
0.029940 -0.077449 -0.084904 255 100 100
0.168304 0.328284 -0.097745 255 100 100
-0.097127 -0.127909 -0.214579 255 100 100
-0.293914 -0.108354 -0.141700 255 100 100
0.123597 -0.234255 -0.134932 255 100 100
-0.237620 0.400821 -0.112162 255 100 100
-0.175129 0.245638 0.012124 255 100 100
-0.132844 0.207049 0.174038 255 100 100
0.125297 -0.042594 0.091918 255 100 100
0.551362 -0.063068 -0.121209 255 100 100
-0.095882 -0.152096 -0.048061 255 100 100
-0.111260 0.008618 0.107478 255 100 100
0.214451 0.339793 -0.121538 255 100 100
-0.272041 -0.128755 0.043694 255 100 100
-0.010153 0.261207 0.289493 255 100 100
0.042438 -0.288976 -0.204683 255 100 100
0.091701 -0.102886 -0.143818 255 100 100
0.152268 -0.068460 0.035312 255 100 100
-0.098453 0.207056 0.388908 255 100 100
-0.036454 -0.226542 -0.257194 255 100 100
0.248853 -0.085911 0.008978 255 100 100
0.075916 0.286554 -0.156306 255 100 100
0.150723 -0.261728 0.146066 255 100 100
0.412818 0.347280 0.482193 255 100 100
0.079409 -0.116210 -0.117309 255 100 100
-0.159338 -0.347877 0.318244 255 100 100
0.156007 -0.175618 0.211050 255 100 100
-0.534897 -0.442647 0.093926 255 100 100
-0.289292 0.192331 -0.052377 255 100 100
-0.023148 0.338264 0.202411 255 100 100
-0.078335 0.235112 -0.222772 255 100 100
0.085273 0.017490 0.123285 255 100 100
0.095043 0.054882 -0.045459 255 100 100
0.192826 0.328157 0.484689 255 100 100
-0.586952 0.088936 -0.398941 255 100 100
0.220618 -0.054799 0.075549 255 100 100
0.182057 0.059693 0.018193 255 100 100
-0.450902 0.190478 0.109269 255 100 100
0.310724 -0.110042 -0.083246 255 100 100
-0.271850 -0.049619 0.096821 255 100 100
-0.329887 0.180250 0.265709 255 100 100
-0.119869 -0.148283 -0.219838 255 100 100
0.061023 0.143435 -0.185146 255 100 100
0.364940 -0.222069 0.027051 255 100 100
-0.263785 -0.423387 -0.340297 255 100 100
0.421143 0.250511 0.399383 255 100 100
0.057682 0.009747 -0.010023 255 100 100
0.155304 -0.026326 -0.036121 255 100 100
0.200042 -0.291275 -0.014236 255 100 100
0.044284 -0.045580 0.024840 255 100 100
0.073871 -0.375944 0.091772 255 100 100
0.273115 -0.205845 0.033561 255 100 100
0.436822 0.114890 -0.356322 255 100 100
-0.279014 -0.200956 -0.012674 255 100 100
-0.122171 -0.088421 -0.350417 255 100 100
-0.339156 -0.335413 0.291194 255 100 100
0.192778 0.082424 0.043020 255 100 100
-0.023556 -0.127312 0.047009 255 100 100
0.082680 0.646689 -0.039870 255 100 100
0.352405 -0.337726 -0.018143 255 100 100
0.149990 -0.209265 0.024510 255 100 100
0.339520 -0.227120 -0.403757 255 100 100
0.064653 -0.172366 -0.196403 255 100 100
-0.202055 -0.029380 0.056766 255 100 100
0.119669 0.102683 -0.041982 255 100 100
0.200023 -0.264879 -0.079633 255 100 100
0.167018 -0.114949 0.302940 255 100 100
-0.268696 0.185508 0.296503 255 100 100
-0.038754 -0.317991 -0.608809 255 100 100
-0.147162 -0.222565 -0.187729 255 100 100
0.160443 0.081638 -0.066229 255 100 100
0.028172 -0.202043 0.312173 255 100 100
-0.033068 -0.109068 0.093981 255 100 100
0.238493 0.085600 -0.233160 255 100 100
0.075822 0.242670 -0.136866 255 100 100
-0.050699 -0.487105 -0.124463 255 100 100
0.015274 0.318859 -0.105926 255 100 100
-0.195702 -0.246494 0.140573 255 100 100
0.070262 0.080364 -0.099828 255 100 100
0.057769 -0.040993 -0.240332 255 100 100
-0.181049 -0.474443 0.007205 255 100 100
0.056929 0.008400 0.361794 255 100 100
-0.024738 -0.374610 -0.331385 255 100 100
-0.113521 -0.364642 0.092866 255 100 100
0.007999 -0.111205 -0.524943 255 100 100
0.381848 0.072073 -0.003249 255 100 100
0.059759 0.100374 -0.138524 255 100 100
-0.214133 0.344653 0.264373 255 100 100
0.059640 -0.083660 0.411142 255 100 100
0.033519 -0.369902 -0.257807 255 100 100
0.131642 0.165389 0.126184 255 100 100
0.068928 -0.331765 0.018927 255 100 100
-0.185196 0.059103 0.329213 255 100 100
-0.099740 -0.175923 0.150284 255 100 100
-0.113580 0.050217 -0.166734 255 100 100
-0.069455 0.170404 -0.161979 255 100 100
-0.275689 -0.291816 0.405118 255 100 100
0.271970 -0.186918 0.126370 255 100 100
0.056914 -0.205281 0.058384 255 100 100
0.141027 0.197585 -0.156373 255 100 100
0.013000 -0.119973 -0.021383 255 100 100
0.412182 -0.053453 -0.382198 255 100 100
-0.166796 0.192274 -0.020282 255 100 100
0.092364 -0.055712 0.071874 255 100 100
-0.133506 0.257645 0.147966 255 100 100
-0.174225 0.097301 0.038400 255 100 100
0.345422 0.085719 -0.107980 255 100 100
0.028162 -0.226130 0.557039 255 100 100
-0.029720 -0.286281 -0.000082 255 100 100
-0.054461 0.262747 0.057919 255 100 100
0.343904 0.011372 0.065537 255 100 100
0.206118 -0.206110 0.361913 255 100 100
-0.106465 -0.291889 0.193906 255 100 100
-0.352995 0.186684 0.050631 255 100 100
-0.363139 0.072980 -0.026250 255 100 100
0.122747 0.402984 -0.093723 255 100 100
0.074044 0.138748 0.110163 255 100 100
0.268906 0.360114 -0.238991 255 100 100
0.108028 0.341482 0.183815 255 100 100
-0.007570 -0.169024 0.020579 255 100 100
0.036483 0.117099 0.351895 255 100 100
0.074717 0.578944 -0.152807 255 100 100
-0.238387 -0.412914 0.032591 255 100 100
-0.018163 -0.193076 0.148674 255 100 100
-0.048836 0.084303 -0.321902 255 100 100
-0.052587 -0.439637 0.259562 255 100 100
0.092476 0.491446 0.468359 255 100 100
0.041690 -0.143956 0.072703 255 100 100
0.034979 -0.011659 -0.226064 255 100 100
0.040597 -0.133780 0.173861 255 100 100
-0.079398 -0.254666 0.123676 255 100 100
0.233792 0.384330 0.033123 255 100 100
0.314871 0.068987 -0.003016 255 100 100
0.005155 0.290624 0.140753 255 100 100
0.010590 0.295995 0.145587 255 100 100
0.189274 0.070066 -0.130154 255 100 100
0.078810 -0.155567 -0.344428 255 100 100
0.293446 0.343145 -0.074273 255 100 100
-0.251127 0.227293 0.236735 255 100 100
-0.455145 -0.277945 -0.069604 255 100 100
-0.084334 0.501171 0.074290 255 100 100
0.108646 0.004105 -0.023813 255 100 100
0.340598 -0.160416 -0.308343 255 100 100
-0.062937 0.427881 0.030754 255 100 100
0.436629 -0.074521 -0.039450 255 100 100
-0.041775 0.143868 0.053399 255 100 100
0.097131 0.006405 -0.038268 255 100 100
-0.159603 0.102276 -0.132773 255 100 100
0.496841 -0.111649 0.060469 255 100 100
0.116924 -0.222336 0.081707 255 100 100
-0.100534 -0.119532 0.379190 255 100 100
0.122924 0.336694 0.267713 255 100 100
0.140261 -0.248281 -0.075991 255 100 100
-0.397175 0.224176 -0.136276 255 100 100
-0.100419 0.308357 -0.087253 255 100 100
-0.039716 0.355262 0.013899 255 100 100
-0.012577 0.496413 -0.063305 255 100 100
-0.263016 0.087618 0.421955 255 100 100
0.405232 0.047051 0.068126 255 100 100
-0.071800 -0.136568 -0.141766 255 100 100
0.103692 0.233949 -0.125644 255 100 100
-0.356742 0.118265 0.095347 255 100 100
0.084633 0.159397 -0.247720 255 100 100
-0.442509 -0.036796 -0.059608 255 100 100
0.306217 -0.211566 -0.127870 255 100 100
-0.051760 -0.112908 0.007362 255 100 100
0.404464 0.154613 -0.355227 255 100 100
0.180735 -0.419565 -0.111495 255 100 100
-0.016017 -0.007796 -0.274504 255 100 100
-0.115094 0.308251 -0.202541 255 100 100
-0.112617 0.178121 -0.212325 255 100 100
-0.189004 -0.212138 -0.239639 255 100 100
0.266908 0.049922 0.063904 255 100 100
0.132233 -0.057668 0.250740 255 100 100
-0.080148 0.286503 0.271217 255 100 100
0.093817 0.309414 0.016774 255 100 100
0.087176 0.013522 -0.044215 255 100 100
-0.225398 -0.110220 0.163495 255 100 100
-0.297691 0.308606 0.215128 255 100 100
0.113755 -0.103730 0.109895 255 100 100
-0.186925 -0.052356 0.030084 255 100 100
-0.292616 0.178057 0.230694 255 100 100
0.250035 0.178439 -0.029258 255 100 100
-0.143576 -0.035586 0.142325 255 100 100
-0.350915 -0.293950 0.111096 255 100 100
-0.102781 0.714399 -0.069411 255 100 100
0.132367 0.096846 0.305537 255 100 100
0.264860 -0.041047 0.326969 255 100 100
-0.086928 0.035778 -0.224846 255 100 100
-0.216103 0.085059 0.263006 255 100 100
-0.311774 0.110258 -0.177043 255 100 100
0.254805 0.089912 -0.385205 255 100 100
-0.167490 -0.207630 0.009302 255 100 100
-0.018966 -0.065385 0.507269 255 100 100
-0.095267 -0.089338 0.646948 255 100 100
-0.014691 -0.316947 -0.241149 255 100 100
-0.008440 -0.165281 -0.234319 255 100 100
-0.332425 0.371358 -0.385330 255 100 100
0.561097 0.210349 -0.196308 255 100 100
0.192571 -0.382800 0.404230 255 100 100
0.476969 0.104467 -0.120226 255 100 100
-0.179914 -0.183890 0.187034 255 100 100
-0.234329 -0.101161 0.295645 255 100 100
-0.090280 -0.295644 -0.291541 255 100 100
-0.273830 0.403132 -0.218581 255 100 100
-0.406932 -0.197644 0.266733 255 100 100
0.054692 -0.192740 0.085406 255 100 100
-0.102750 0.298817 0.236723 255 100 100
0.122158 0.029931 -0.248170 255 100 100
0.014186 0.412738 0.053170 255 100 100
-0.643165 0.059613 0.075766 255 100 100
0.115045 0.260542 -0.104630 255 100 100
-0.043904 0.360159 -0.075302 255 100 100
-0.193650 -0.630757 0.101561 255 100 100
0.226793 -0.116623 -0.052309 255 100 100
0.085360 0.016350 -0.075324 255 100 100
0.099002 0.255142 -0.214233 255 100 100
-0.091884 -0.126641 0.345958 255 100 100
0.187413 -0.469308 0.133564 255 100 100
-0.089000 0.270238 -0.299219 255 100 100
-0.022667 0.093692 -0.125083 255 100 100
-0.110086 -0.063053 -0.360404 255 100 100
0.167423 0.043955 -0.076561 255 100 100
0.063329 0.333315 -0.040390 255 100 100
-0.096447 0.190339 -0.191813 255 100 100
-0.062846 -0.023346 0.144210 255 100 100
-0.010142 -0.218885 0.210143 255 100 100
0.157974 0.258016 0.274286 255 100 100
0.322821 -0.116083 -0.052056 255 100 100
0.268589 0.502580 -0.027256 255 100 100
-0.103057 0.293850 -0.336565 255 100 100
0.546927 -0.295196 -0.271506 255 100 100
-0.168522 0.356291 0.410586 255 100 100
-0.181652 -0.194659 0.069437 255 100 100
0.112837 0.093222 -0.219675 255 100 100
0.329004 -0.003630 -0.014620 255 100 100
-0.023696 -0.340918 -0.008250 255 100 100
-0.041712 0.091260 0.357737 255 100 100
0.094145 0.254431 0.143810 255 100 100
0.218268 -0.122807 -0.013631 255 100 100
-0.150999 0.126769 -0.090119 255 100 100
-0.020704 -0.194989 0.355912 255 100 100
-0.048561 -0.044422 0.116694 255 100 100
0.342898 -0.030941 -0.051490 255 100 100
0.103939 -0.099588 0.226105 255 100 100
0.038899 -0.077499 0.350490 255 100 100
0.504721 -0.080127 -0.336293 255 100 100
-0.077070 0.138569 0.307363 255 100 100
-0.053690 -0.046584 0.262718 255 100 100
-0.129403 -0.559642 -0.045824 255 100 100
-0.189159 -0.017427 0.243678 255 100 100
0.131439 0.490846 -0.203848 255 100 100
0.190252 0.170003 0.313083 255 100 100
-0.521383 -0.116922 -0.121751 255 100 100
-0.171285 0.252252 0.113122 255 100 100
-0.101962 -0.094741 0.390504 255 100 100
0.205657 0.040369 -0.190822 255 100 100
-0.230562 0.550564 -0.229715 255 100 100
0.324737 -0.041118 -0.233357 255 100 100
0.214447 -0.580255 -0.350813 255 100 100
0.206799 0.072536 -0.085045 255 100 100
0.009477 0.211533 0.067735 255 100 100
0.286274 0.024789 -0.072238 255 100 100
-0.044474 0.288192 -0.275852 255 100 100
-0.131906 0.406132 -0.029156 255 100 100
-0.141110 0.001591 0.135187 255 100 100
0.193833 0.035546 -0.175819 255 100 100
-0.325051 0.102093 0.131116 255 100 100
0.085097 -0.431100 -0.077552 255 100 100
-0.215037 0.309198 0.186401 255 100 100
0.210149 0.286208 0.014791 255 100 100
-0.039359 0.153679 0.047914 255 100 100
-0.024277 -0.259001 0.360003 255 100 100
0.110940 0.040937 0.120135 255 100 100
-0.051556 0.015833 -0.361752 255 100 100
-0.224392 0.082896 0.080149 255 100 100
-0.086400 0.041982 -0.099794 255 100 100
0.103513 -0.170731 0.265066 255 100 100
0.375847 0.290166 -0.032033 255 100 100
-0.117721 -0.190435 -0.086333 255 100 100
-0.002673 0.136654 -0.434808 255 100 100
-0.249064 0.377023 -0.024282 255 100 100
0.138556 0.014072 0.162457 255 100 100
-0.105356 -0.126572 -0.244976 255 100 100
-0.125855 -0.104536 0.337168 255 100 100
-0.245135 -0.126859 -0.119158 255 100 100
-0.187090 -0.206572 -0.234381 255 100 100
0.362033 -0.031148 0.093599 255 100 100
0.163392 -0.153770 -0.003379 255 100 100
-0.010318 -0.096005 -0.179400 255 100 100
0.121680 0.237790 -0.172766 255 100 100
-0.127689 0.109727 -0.069046 255 100 100
0.263339 -0.552746 -0.099266 255 100 100
-0.382322 -0.080882 -0.152146 255 100 100
-0.036903 0.114565 0.051649 255 100 100
0.247648 0.130106 -0.011478 255 100 100
-0.064168 -0.277896 -0.102874 255 100 100
-0.034560 -0.159226 -0.049931 255 100 100
0.319080 -0.019934 0.355930 255 100 100
0.209309 0.266490 0.215946 255 100 100
0.168869 -0.386971 -0.167123 255 100 100
0.247740 0.624060 0.210527 255 100 100
-0.046159 -0.230320 -0.086272 255 100 100
0.299920 -0.173870 -0.047875 255 100 100
0.088300 0.107383 -0.120056 255 100 100
-0.272184 -0.324921 -0.298738 255 100 100
-0.374465 -0.324851 0.293662 255 100 100
-0.059543 -0.080321 -0.338032 255 100 100
-0.948383 0.237387 -0.202717 255 100 100
0.289745 -0.021598 0.085479 255 100 100
0.111117 0.031200 -0.129912 255 100 100
-0.085496 0.242642 0.153849 255 100 100
-0.023489 0.014810 0.167651 255 100 100
0.063171 -0.049717 -0.031886 255 100 100
-0.178348 -0.215187 0.216562 255 100 100
0.019458 0.083305 0.160962 255 100 100
0.028418 0.187159 -0.017327 255 100 100
-0.294308 -0.108836 0.052258 255 100 100
0.109125 0.256057 0.179867 255 100 100
-0.117891 0.130596 0.308472 255 100 100
0.376166 0.283418 0.171328 255 100 100
-0.077872 0.079768 0.400432 255 100 100
0.248574 0.269233 0.135709 255 100 100
0.331822 -0.383351 0.038741 255 100 100
-0.491618 0.087131 -0.008618 255 100 100
-0.285587 0.146637 -0.314166 255 100 100
0.028020 -0.057303 0.410770 255 100 100
0.417356 0.008437 0.283175 255 100 100
0.169709 0.046951 -0.558255 255 100 100
-0.444406 0.576179 0.039513 255 100 100
-0.011756 0.166559 0.073460 255 100 100
0.281214 0.203745 0.074660 255 100 100
-0.183162 -0.367789 -0.055017 255 100 100
0.392662 0.055183 0.509262 255 100 100
0.225344 0.328247 0.093421 255 100 100
-0.178821 -0.210578 0.172366 255 100 100
-0.189025 -0.153685 -0.024694 255 100 100
0.284542 -0.199030 0.103246 255 100 100
-0.409318 0.083328 0.119562 255 100 100
-0.050581 0.347803 0.281218 255 100 100
-0.059277 0.027702 0.198358 255 100 100
-0.212147 -0.220520 -0.000562 255 100 100
-0.027727 -0.081260 0.209554 255 100 100
0.002087 0.102822 -0.025086 255 100 100
-0.120567 0.452573 0.174884 255 100 100
-0.404902 0.427203 0.142615 255 100 100
-0.230678 -0.188150 -0.348460 255 100 100
0.023613 -0.335517 0.057349 255 100 100
0.607830 -0.019539 0.205529 255 100 100
0.167244 0.142979 -0.493791 255 100 100
-0.100895 -0.202281 0.023975 255 100 100
0.030316 -0.192084 -0.025921 255 100 100
0.024634 0.159960 -0.315262 255 100 100
-0.032727 -0.069771 -0.092581 255 100 100
-0.133209 -0.159185 -0.044881 255 100 100
-0.084003 -0.153741 -0.003778 255 100 100
-0.159117 -0.365240 -0.159011 255 100 100
0.323091 -0.110012 0.064260 255 100 100
0.028866 0.293902 0.221853 255 100 100
-0.111932 -0.157320 -0.048336 255 100 100
0.233319 0.101939 -0.437804 255 100 100
-0.395199 0.107506 0.045748 255 100 100
-0.037738 0.038923 0.389799 255 100 100
0.199117 0.136437 0.020291 255 100 100
0.403461 0.001966 0.244421 255 100 100
0.235466 -0.030605 -0.172395 255 100 100
-0.057209 0.075462 -0.124243 255 100 100
0.177327 0.213887 -0.015144 255 100 100
0.028565 0.232547 -0.413052 255 100 100
-0.311820 -0.053937 -0.238086 255 100 100
-0.075502 -0.050890 -0.143470 255 100 100
-0.117277 0.410466 -0.261707 255 100 100
0.083314 -0.230372 -0.006686 255 100 100
-0.007883 -0.542033 0.321390 255 100 100
0.236321 -0.161459 0.204420 255 100 100
-0.045247 0.126582 -0.092534 255 100 100
-0.189083 0.050667 -0.100523 255 100 100
0.271804 0.046832 -0.189977 255 100 100
0.381964 -0.142208 0.000307 255 100 100
0.067646 -0.341910 0.482214 255 100 100
0.203829 -0.334126 -0.241771 255 100 100
-0.098296 -0.415282 -0.049266 255 100 100
-0.072133 -0.145272 0.137049 255 100 100
-0.213759 0.332350 -0.204020 255 100 100
0.071157 0.152348 -0.174568 255 100 100
-0.298331 0.000045 0.114403 255 100 100
-0.094858 0.254371 -0.043528 255 100 100
0.282759 0.049787 0.345082 255 100 100
-0.164161 -0.255128 0.374240 255 100 100
0.093495 0.128610 0.295093 255 100 100
0.244873 -0.246574 -0.191259 255 100 100
0.056438 0.333321 0.188141 255 100 100
0.155149 0.034030 -0.085396 255 100 100
0.026842 0.094546 0.031709 255 100 100
0.216182 0.177252 -0.184794 255 100 100
-0.056621 -0.338405 0.075820 255 100 100
0.019156 -0.155864 -0.228604 255 100 100
0.086139 0.131281 -0.166971 255 100 100
-0.319571 0.386015 0.088213 255 100 100
0.128252 -0.409673 -0.098910 255 100 100
-0.132218 0.048828 -0.057201 255 100 100
-0.077764 -0.263423 -0.156533 255 100 100
-0.022377 -0.098377 0.055551 255 100 100
0.098229 -0.096483 0.095705 255 100 100
-0.095546 0.062299 -0.145372 255 100 100
0.086730 -0.148844 -0.267538 255 100 100
0.043572 -0.130240 -0.117278 255 100 100
0.158095 -0.238776 -0.415430 255 100 100
0.156131 -0.164991 0.098408 255 100 100
-0.095320 -0.343143 -0.141650 255 100 100
0.245741 0.079808 0.276710 255 100 100
0.281454 -0.234020 -0.325678 255 100 100
0.165957 -0.128888 -0.171288 255 100 100
0.063396 -0.278403 0.003971 255 100 100
-0.167196 -0.238442 -0.003350 255 100 100
-0.146430 0.373735 -0.334971 255 100 100
-0.089541 0.075964 0.112581 255 100 100
-0.046122 0.011369 0.021472 255 100 100
-0.057331 0.270677 0.220663 255 100 100
0.122635 0.002699 0.131516 255 100 100
0.016260 0.087949 0.232721 255 100 100
-0.176801 -0.228299 -0.058311 255 100 100
0.257712 0.364100 0.061433 255 100 100
0.421625 -0.375225 -0.064485 255 100 100
-0.025334 0.032646 0.121979 255 100 100
-0.066940 -0.028857 -0.471595 255 100 100
-0.347593 -0.188597 0.157696 255 100 100
0.444803 0.106833 0.171850 255 100 100
-0.069848 0.181556 -0.094279 255 100 100
-0.045281 0.080520 -0.287092 255 100 100
-0.314762 -0.324037 0.160270 255 100 100
0.124712 0.493472 -0.441783 255 100 100
0.035963 -0.033167 0.423484 255 100 100
-0.307630 0.129055 0.211797 255 100 100
-0.129096 -0.102021 -0.195760 255 100 100
0.203992 0.203065 0.015623 255 100 100
-0.088981 0.226824 0.317760 255 100 100
0.424841 0.067801 -0.093717 255 100 100
-0.229354 0.122112 -0.401662 255 100 100
-0.126002 0.178968 -0.466733 255 100 100
0.078724 0.021350 -0.061875 255 100 100
0.078136 -0.055429 -0.024444 255 100 100
-0.063363 0.189799 -0.151302 255 100 100
0.532050 -0.378899 0.249235 255 100 100
-0.067360 0.112386 -0.012099 255 100 100
-0.202543 0.018701 -0.145279 255 100 100
-0.437474 0.017685 -0.389211 255 100 100
-0.036973 -0.404802 -0.587604 255 100 100
-0.044352 0.083536 -0.018411 255 100 100
-0.073809 -0.034114 0.023764 255 100 100
-0.102430 -0.133716 0.036800 255 100 100
-0.017802 -0.206832 0.093161 255 100 100
-0.116267 0.192233 -0.172563 255 100 100
0.239974 0.253763 0.171028 255 100 100
0.029620 -0.132597 -0.482812 255 100 100
-0.090585 0.042801 0.192773 255 100 100
0.028923 0.154305 -0.022901 255 100 100
0.005817 0.137088 0.305769 255 100 100
0.089692 0.118227 0.031210 255 100 100
0.195431 -0.233779 0.144440 255 100 100
0.162706 -0.512783 0.006028 255 100 100
-0.049268 0.144916 0.169836 255 100 100
-0.172574 0.149157 -0.274951 255 100 100
0.081743 0.282122 0.075137 255 100 100
0.350751 0.081139 0.085089 255 100 100
-0.149999 0.078542 -0.020030 255 100 100
-0.200085 -0.070598 0.190844 255 100 100
-0.014201 0.343498 0.483905 255 100 100
0.155123 0.428983 -0.117445 255 100 100
0.029352 0.139772 0.118921 255 100 100
0.046537 -0.295008 0.134510 255 100 100
0.147105 -0.327405 0.151079 255 100 100
0.069859 -0.205787 0.379924 255 100 100
-0.059155 -0.425895 -0.046830 255 100 100
-0.001691 -0.269280 0.305399 255 100 100
-0.124424 -0.097659 -0.138585 255 100 100
0.138506 0.252522 -0.292105 255 100 100
-0.320819 -0.079701 0.455295 255 100 100
0.061145 -0.139084 -0.183733 255 100 100
-0.304390 -0.274737 0.235578 255 100 100
-0.388374 -0.425805 -0.187288 255 100 100
-0.035315 0.009372 0.192742 255 100 100
-0.088980 0.056755 0.069908 255 100 100
-0.334365 -0.035789 0.149436 255 100 100
-0.151450 0.247486 0.052255 255 100 100
-0.101356 -0.328345 0.322823 255 100 100
0.429994 0.591337 0.062227 255 100 100
0.213908 -0.186273 -0.337632 255 100 100
0.472940 0.340181 -0.402917 255 100 100
-0.252407 -0.136722 0.243868 255 100 100
-0.332681 -0.236822 0.087527 255 100 100
0.204769 -0.091438 -0.147070 255 100 100
-0.033534 0.416513 0.050163 255 100 100
0.118403 -0.327847 -0.716893 255 100 100
-0.130390 0.116316 -0.267424 255 100 100
0.015245 -0.126586 -0.118716 255 100 100
-0.081731 -0.219419 0.408446 255 100 100
0.114630 0.019111 -0.014184 255 100 100
0.007128 0.250791 0.037161 255 100 100
0.068245 -0.014707 -0.555030 255 100 100
-0.262722 -0.126586 -0.030347 255 100 100
-0.173756 0.123886 0.175184 255 100 100
-0.188932 -0.068366 0.018815 255 100 100
-0.128092 0.312728 -0.153801 255 100 100
-0.469485 -0.026330 0.261542 255 100 100
-0.062749 -0.188767 -0.017993 255 100 100
0.098417 0.192142 0.065188 255 100 100
0.132207 -0.360967 0.025420 255 100 100
-0.157747 -0.057234 -0.022904 255 100 100
-0.220888 -0.177656 0.103593 255 100 100
0.151587 0.304688 0.136980 255 100 100
0.058384 -0.228136 0.354670 255 100 100
-0.232463 0.366886 0.169177 255 100 100
0.116884 0.024321 0.122972 255 100 100
0.257159 0.007452 0.440073 255 100 100
0.180884 -0.140612 -0.165800 255 100 100
0.117812 -0.237629 -0.369184 255 100 100
-0.082840 0.283391 0.194644 255 100 100
0.439786 -0.047389 -0.006440 255 100 100
-0.382725 0.139682 0.053155 255 100 100
-0.249526 0.038274 -0.157254 255 100 100
0.445361 -0.460158 0.147357 255 100 100
0.026764 -0.227527 0.094761 255 100 100
-0.090902 0.317029 0.052230 255 100 100
0.271587 -0.250600 0.133895 255 100 100
-0.677842 0.071590 -0.047723 255 100 100
0.159790 -0.178215 0.092941 255 100 100
-0.231680 -0.219109 0.007513 255 100 100
-0.221629 0.119376 -0.180732 255 100 100
0.205580 0.183792 0.066358 255 100 100
0.047164 0.036793 0.060971 255 100 100
-0.132050 -0.147894 -0.209901 255 100 100
0.219147 -0.033508 -0.210187 255 100 100
-0.046079 -0.365550 0.252104 255 100 100
-0.110789 0.024248 -0.149469 255 100 100
-0.280619 -0.429938 -0.046900 255 100 100
0.073235 0.501248 0.323241 255 100 100
-0.518747 0.217768 0.299947 255 100 100
0.488101 -0.395651 -0.066478 255 100 100
0.085344 -0.193360 -0.201216 255 100 100
0.036261 0.251622 -0.398133 255 100 100
0.325044 0.169645 0.009209 255 100 100
0.328213 -0.248832 -0.182320 255 100 100
-0.430501 -0.120759 0.004743 255 100 100
0.673286 -0.698340 -0.242916 255 100 100
-0.170373 -0.040566 -0.437090 255 100 100
-0.531949 0.004975 -0.142152 255 100 100
-0.290272 0.123962 0.125109 255 100 100
-0.081929 0.457106 0.281345 255 100 100
0.231521 -0.153074 0.040517 255 100 100
-0.127436 -0.003112 -0.196655 255 100 100
0.121614 0.050952 0.113475 255 100 100
-0.395680 0.694243 0.229870 255 100 100
-0.371088 -0.299351 0.089927 255 100 100
-0.250512 0.302543 -0.038851 255 100 100
0.307239 -0.301961 0.044945 255 100 100
-0.345600 -0.059038 -0.134696 255 100 100
-0.269174 -0.118233 -0.131201 255 100 100
0.033747 0.153247 0.231138 255 100 100
0.248281 0.002673 0.282136 255 100 100
-0.314038 -0.216815 0.015372 255 100 100
0.113800 0.254779 -0.268342 255 100 100
0.073246 0.215395 0.426246 255 100 100
-0.171489 -0.457550 -0.069404 255 100 100
-0.243947 0.018435 -0.071805 255 100 100
-0.240871 0.147275 0.224220 255 100 100
0.037398 0.221167 0.029022 255 100 100
0.061065 -0.309926 0.028136 255 100 100
0.032675 -0.007224 -0.018613 255 100 100
0.340756 -0.029021 -0.144308 255 100 100
0.332630 -0.004599 -0.197875 255 100 100
-0.199312 0.135579 -0.149076 255 100 100
0.043638 -0.000729 -0.277598 255 100 100
-0.280540 0.114053 0.225476 255 100 100
0.122817 0.248277 0.201886 255 100 100
0.168527 -0.197700 -0.207146 255 100 100
-0.242188 0.116400 -0.436014 255 100 100
0.152482 -0.178093 0.022609 255 100 100
-0.002948 0.023214 -0.039590 255 100 100
-0.203307 -0.066323 -0.045796 255 100 100
0.374706 -0.148773 0.029740 255 100 100
-0.435192 -0.551197 -0.012447 255 100 100
0.166838 -0.157439 -0.422493 255 100 100
0.152860 0.216742 0.330000 255 100 100
0.303979 -0.165670 0.210346 255 100 100
-0.153118 -0.136847 0.698043 255 100 100
-0.234741 -0.016989 0.119439 255 100 100
-0.129074 -0.116645 -0.146295 255 100 100
0.024279 -0.133952 -0.061483 255 100 100
-0.036108 -0.085871 -0.117163 255 100 100
-0.320718 -0.451918 0.052523 255 100 100
-0.085289 0.076112 -0.100977 255 100 100
0.033039 0.115353 -0.368028 255 100 100
-0.023195 -0.094451 -0.274455 255 100 100
0.411821 0.477314 -0.110970 255 100 100
0.237214 -0.144998 -0.024322 255 100 100
-0.290025 0.233864 -0.165991 255 100 100
0.369860 0.401322 0.057772 255 100 100
-0.183830 0.009618 -0.017427 255 100 100
0.197953 0.336682 0.307742 255 100 100
0.223394 -0.157772 -0.651158 255 100 100
-0.011711 -0.021792 0.125876 255 100 100
-0.153297 0.058702 -0.015486 255 100 100
0.005236 -0.225965 -0.269947 255 100 100
-0.003216 -0.268723 -0.242337 255 100 100
-0.083324 0.122883 -0.032235 255 100 100
-0.041914 0.186792 -0.292341 255 100 100
-0.029127 -0.053008 0.152099 255 100 100
0.040376 0.267726 -0.139636 255 100 100
0.114866 0.272645 0.099297 255 100 100
-0.062466 0.007766 0.014223 255 100 100
0.414153 -0.107260 0.236088 255 100 100
-0.066264 0.124716 0.072477 255 100 100
-0.062430 -0.364559 0.042997 255 100 100
-0.098935 -0.123022 0.393968 255 100 100
-0.051069 -0.117648 -0.058593 255 100 100
-0.144858 0.040871 -0.207305 255 100 100
0.074777 -0.135120 0.177419 255 100 100
-0.105188 0.017087 0.107459 255 100 100
-0.292354 0.073965 -0.546312 255 100 100
-0.256949 -0.277025 -0.060177 255 100 100
-0.084563 0.106415 0.194826 255 100 100
0.092852 0.355750 -0.054940 255 100 100
-0.136923 -0.092700 0.161836 255 100 100
-0.142707 -0.095769 -0.320302 255 100 100
-0.144598 -0.193672 -0.225901 255 100 100
0.205601 -0.350493 0.161128 255 100 100
0.028861 0.007804 -0.559246 255 100 100
-0.168117 -0.396947 -0.281075 255 100 100
-0.326886 -0.062981 0.124914 255 100 100
0.326333 0.202839 0.001615 255 100 100
0.122325 0.002954 -0.382469 255 100 100
0.050080 -0.238620 -0.295512 255 100 100
-0.065852 0.143336 -0.424055 255 100 100
0.070566 -0.037334 -0.169967 255 100 100
0.141546 -0.145335 0.188864 255 100 100
-0.015741 0.414072 0.025016 255 100 100
0.533835 0.133295 0.103390 255 100 100
0.215551 0.225986 0.050299 255 100 100
0.256977 -0.428872 -0.309966 255 100 100
-0.315166 0.305852 0.259019 255 100 100
0.287965 0.037141 -0.153634 255 100 100
-0.024066 -0.047170 -0.377680 255 100 100
0.171673 0.004150 -0.078856 255 100 100
-0.063667 -0.061459 0.084603 255 100 100
-0.024907 0.064672 0.193032 255 100 100
-0.029564 -0.046696 0.379111 255 100 100
0.085156 -0.002128 0.151543 255 100 100
0.503035 -0.113475 0.024130 255 100 100
0.512144 0.182973 -0.359198 255 100 100
-0.024939 0.186550 -0.299742 255 100 100
0.073569 0.273172 -0.179587 255 100 100
0.329611 0.026613 0.187271 255 100 100
-0.386284 -0.464485 0.124331 255 100 100
0.231768 0.113823 -0.110159 255 100 100
-0.234765 0.146215 -0.293334 255 100 100
-0.050575 -0.124428 -0.060960 255 100 100
0.243649 -0.009748 -0.163545 255 100 100
-0.193127 0.086645 0.202021 255 100 100
0.136415 0.105572 0.060196 255 100 100
0.251042 0.006667 0.273731 255 100 100
-0.130392 0.137352 0.191350 255 100 100
-0.055911 0.074647 0.411881 255 100 100
-0.341758 0.058662 0.333254 255 100 100
0.178884 0.367848 -0.106873 255 100 100
-0.310557 0.113964 -0.332233 255 100 100
-0.350798 0.484975 -0.069786 255 100 100
0.029881 0.349743 0.058664 255 100 100
0.289962 -0.068958 0.058836 255 100 100
0.009691 -0.166708 0.307491 255 100 100
-0.160982 -0.369291 -0.024114 255 100 100
0.259257 -0.046834 0.035722 255 100 100
0.136402 -0.049902 -0.170779 255 100 100
0.086159 0.074365 0.042130 255 100 100
-0.035528 0.057164 0.296893 255 100 100
0.086954 -0.257831 -0.067188 255 100 100
0.064261 -0.428231 -0.175370 255 100 100
-0.074259 0.182201 -0.112668 255 100 100
0.118907 -0.212056 -0.446918 255 100 100
-0.230572 -0.264871 0.055001 255 100 100
0.315877 0.092821 -0.154890 255 100 100
-0.207208 0.032063 0.028445 255 100 100
-0.361648 -0.472460 0.071428 255 100 100
-0.135705 0.047491 -0.140921 255 100 100
-0.124629 0.125895 0.189699 255 100 100
0.221537 0.079307 -0.221516 255 100 100
0.368957 -0.015851 0.362560 255 100 100
0.104719 -0.049587 -0.113118 255 100 100
0.269340 0.114759 -0.034627 255 100 100
-0.111767 -0.021265 0.060141 255 100 100
-0.039941 0.354454 -0.118883 255 100 100
0.430649 -0.211441 -0.398061 255 100 100
0.035311 -0.180108 0.085761 255 100 100
-0.153525 0.166912 0.421603 255 100 100
0.175323 -0.242920 -0.208036 255 100 100
0.358601 -0.243358 -0.196061 255 100 100
-0.130650 -0.239277 0.117090 255 100 100
-0.207823 -0.580861 -0.183796 255 100 100
0.028640 0.176768 -0.007216 255 100 100
-0.175241 -0.102841 -0.231792 255 100 100
0.174513 0.109353 -0.169104 255 100 100
0.069123 0.083130 -0.224186 255 100 100
0.016038 -0.141115 0.081978 255 100 100
-0.271818 0.003659 -0.250081 255 100 100
-0.400350 -0.193964 -0.142060 255 100 100
-0.167622 -0.073262 -0.099213 255 100 100
0.055750 0.013583 0.117403 255 100 100
0.481671 -0.143717 -0.002357 255 100 100
0.148944 -0.153649 -0.384200 255 100 100
0.071965 -0.097058 0.604134 255 100 100
-0.250184 -0.504137 0.039500 255 100 100
0.283649 0.084784 0.223136 255 100 100
-0.124952 0.068340 -0.065902 255 100 100
-0.196551 -0.017009 0.065458 255 100 100
0.172007 -0.069480 0.193530 255 100 100
0.101083 -0.097452 -0.133070 255 100 100
-0.063305 -0.041233 0.127839 255 100 100
-0.243459 -0.278569 0.080104 255 100 100
0.190073 -0.276033 -0.190757 255 100 100
0.140145 0.011795 -0.330223 255 100 100
-0.338552 -0.004936 -0.149560 255 100 100
0.004548 -0.179972 -0.051202 255 100 100
-0.077793 -0.241156 -0.043220 255 100 100
-0.017321 -0.306727 0.233212 255 100 100
0.421705 0.273227 -0.032549 255 100 100
-0.045784 -0.548951 0.095223 255 100 100
-0.077350 -0.162008 0.092215 255 100 100
0.276545 -0.018396 -0.005988 255 100 100
0.213602 0.065745 0.219308 255 100 100
0.035335 -0.011073 0.015129 255 100 100
-0.054418 -0.298505 -0.079819 255 100 100
0.261739 -0.085265 -0.437177 255 100 100
0.263382 0.377974 0.277471 255 100 100
0.048239 -0.215423 0.043015 255 100 100
-0.509353 0.035626 -0.253324 255 100 100
-0.188433 -0.095307 0.106045 255 100 100
0.070843 -0.153792 0.383168 255 100 100
-0.043639 0.295837 0.097052 255 100 100
-0.319437 -0.097212 0.133027 255 100 100
-0.033213 0.329508 -0.024748 255 100 100
0.220294 0.004850 -0.001459 255 100 100
-0.357113 -0.020601 0.053390 255 100 100
0.131896 0.407003 0.133844 255 100 100
-0.008273 0.303308 0.000455 255 100 100
0.335683 -0.038620 0.235342 255 100 100
-0.353302 0.121440 -0.371754 255 100 100
-0.383770 0.005396 0.019226 255 100 100
0.009390 -0.231621 -0.011056 255 100 100
-0.308139 0.041730 0.083808 255 100 100
0.255284 -0.221105 -0.282052 255 100 100
0.021240 -0.353750 0.174918 255 100 100
-0.134213 -0.224467 -0.147896 255 100 100
0.167294 0.060245 0.190012 255 100 100
-0.365568 0.134630 -0.301574 255 100 100
-0.123473 0.143552 0.022478 255 100 100
0.132985 -0.395326 -0.281752 255 100 100
-0.154171 -0.188349 0.117122 255 100 100
0.156451 -0.227880 -0.037125 255 100 100
-0.394847 -0.169633 0.209531 255 100 100
0.127708 -0.205306 0.199089 255 100 100
-0.099572 0.290556 -0.090482 255 100 100
0.387557 -0.208829 -0.034328 255 100 100
-0.109268 0.006036 -0.103592 255 100 100
-0.236029 -0.088703 -0.344140 255 100 100
0.101139 -0.074304 -0.225292 255 100 100
-0.285187 -0.134490 0.058903 255 100 100
-0.062169 0.370683 0.067695 255 100 100
0.171918 0.216719 -0.107456 255 100 100
-0.091408 0.152386 -0.130462 255 100 100
0.277133 0.519524 0.019169 255 100 100
-0.001425 -0.362708 -0.296425 255 100 100
-0.194418 -0.056539 0.078269 255 100 100
0.095223 -0.192639 0.444494 255 100 100
-0.114781 0.384614 -0.133535 255 100 100
0.636007 0.174343 0.328888 255 100 100
0.088245 0.278732 0.234601 255 100 100
-0.261296 0.057406 0.492786 255 100 100
0.100800 -0.256646 0.330482 255 100 100
0.018567 0.267057 -0.146465 255 100 100
-0.102680 0.173443 -0.007011 255 100 100
-0.201754 -0.317987 0.202361 255 100 100
-0.124317 -0.195370 -0.189402 255 100 100
0.241762 0.006802 -0.145239 255 100 100
0.099221 -0.211253 0.194505 255 100 100
-0.124060 -0.195055 -0.282303 255 100 100
-0.171811 -0.218286 0.172042 255 100 100
-0.177541 -0.309908 -0.124200 255 100 100
0.254860 0.019169 -0.026469 255 100 100
0.035287 -0.303832 -0.168554 255 100 100
0.165731 -0.152860 0.135934 255 100 100
0.046985 -0.162827 0.270333 255 100 100
0.145475 0.075856 -0.090598 255 100 100
0.007728 -0.024423 -0.021036 255 100 100
0.150387 0.333064 -0.390430 255 100 100
0.137024 -0.097730 -0.039409 255 100 100
-0.229363 -0.070909 0.097778 255 100 100
0.250371 -0.167024 0.125050 255 100 100
-0.456025 -0.025168 -0.225991 255 100 100
-0.264533 -0.261181 0.007753 255 100 100
-0.481434 -0.330656 0.164781 255 100 100
0.194627 0.120713 -0.339495 255 100 100
-0.096833 -0.024010 0.033693 255 100 100
-0.647326 -0.238558 -0.255626 255 100 100
0.396441 0.124837 -0.111988 255 100 100
0.005432 -0.405333 -0.193347 255 100 100
-0.065381 -0.237643 0.276744 255 100 100
-0.353921 -0.374949 0.125735 255 100 100
0.023469 0.372730 -0.219005 255 100 100
0.289490 0.227186 0.288706 255 100 100
-0.105340 -0.155671 0.027092 255 100 100
0.009037 -0.057370 0.195784 255 100 100
0.182128 0.293627 0.301194 255 100 100
-0.060105 -0.492967 0.014445 255 100 100
-0.434049 -0.181305 -0.133647 255 100 100
-0.074201 -0.228633 -0.142317 255 100 100
0.162858 0.237317 0.077542 255 100 100
-0.110589 -0.189023 -0.476457 255 100 100
0.339688 -0.070310 0.029898 255 100 100
0.142864 0.015774 -0.081946 255 100 100
-0.031208 0.680575 -0.336915 255 100 100
0.253560 0.148841 0.183204 255 100 100
0.035446 0.415232 -0.178738 255 100 100
0.052448 -0.009617 0.201991 255 100 100
-0.410380 0.111461 0.101598 255 100 100
-0.612675 0.078803 -0.064172 255 100 100
0.117890 -0.096445 0.053428 255 100 100
-0.120274 0.054930 0.332697 255 100 100
-0.210186 -0.299795 0.193348 255 100 100
-0.003869 -0.037835 0.454878 255 100 100
0.380689 0.209567 0.526212 255 100 100
-0.285028 0.180970 0.099073 255 100 100
-0.668066 -0.381953 -0.020442 255 100 100
0.186777 -0.036816 -0.173910 255 100 100
0.079486 -0.104448 0.095070 255 100 100
-0.268844 0.104781 -0.271126 255 100 100
